0.366627 0.024107 0.997181 0.001079 0.111142 0.993804 1.000000
0.470694 0.058545 0.038414 0.001160 0.977717 0.209925 1.000000
0.357855 0.210073 0.309604 0.983740 -0.167319 -0.065266 1.000000
0.471093 0.553164 0.928458 -0.189609 0.979444 -0.068839 1.000000
0.471093 0.553164 0.884053 -0.385351 0.922507 -0.022057 1.000000
0.471093 0.553164 0.668194 0.121949 -0.944769 0.304202 1.000000
0.168660 0.566078 0.429780 0.791706 0.513409 0.331077 1.000000
0.168660 0.566078 0.093744 -0.114953 0.962250 -0.246698 1.000000
0.471890 0.151528 0.974097 -0.013865 0.941566 0.336544 1.000000
0.471890 0.151528 0.415683 0.001052 -0.081042 0.996710 1.000000
0.173046 0.031855 0.652511 0.000978 0.999999 0.000978 1.000000
0.290670 0.045631 0.264141 -0.049338 0.913412 0.404035 1.000000
0.105463 0.007318 0.134449 0.000978 0.999999 0.000978 1.000000
0.105463 0.007318 0.744846 0.000978 0.999999 0.000978 1.000000
0.105463 0.007318 0.931806 0.000978 0.999999 0.000978 1.000000
0.105463 0.007318 0.300617 0.000978 0.999999 0.000978 1.000000
0.105463 0.007318 0.896035 0.000978 0.999999 0.000978 1.000000
0.105463 0.007318 0.552247 0.000978 0.999999 0.000978 1.000000
0.105463 0.007318 0.943260 0.000978 0.999999 0.000978 1.000000
0.059609 0.363754 0.094273 -0.476710 -0.298530 -0.826818 1.000000
0.472289 0.267757 0.299207 0.777537 0.505965 -0.373412 1.000000
0.084530 0.566509 0.042643 -0.347441 0.792550 0.501148 1.000000
0.084530 0.566509 0.979736 0.751320 -0.070662 -0.656144 1.000000
0.084530 0.566509 0.553304 0.081212 0.003164 -0.996692 1.000000
0.111443 0.007318 0.134449 0.000978 0.999999 0.000978 1.000000
0.111443 0.007318 0.744846 0.000978 0.999999 0.000978 1.000000
0.111443 0.007318 0.931806 0.000978 0.999999 0.000978 1.000000
0.111443 0.007318 0.300617 0.000978 0.999999 0.000978 1.000000
0.111443 0.007318 0.896035 0.000978 0.999999 0.000978 1.000000
0.111443 0.007318 0.552247 0.000978 0.999999 0.000978 1.000000
0.111443 0.007318 0.943260 0.000978 0.999999 0.000978 1.000000
0.472687 0.007318 0.134449 0.000978 0.999999 0.000978 1.000000
0.472687 0.007318 0.744846 0.000978 0.999999 0.000978 1.000000
0.472687 0.007318 0.931806 0.000978 0.999999 0.000978 1.000000
0.472687 0.007318 0.300617 0.000978 0.999999 0.000978 1.000000
0.472687 0.007318 0.896035 0.000978 0.999999 0.000978 1.000000
0.472687 0.007318 0.552247 0.000978 0.999999 0.000978 1.000000
0.472687 0.007318 0.943260 0.000978 0.999999 0.000978 1.000000
0.472887 0.238485 0.481057 0.705672 -0.644589 -0.294164 1.000000
0.024920 0.079638 0.376211 0.000978 0.999999 0.000978 1.000000
0.004585 0.031855 0.652511 0.000978 0.999999 0.000978 1.000000
0.319976 0.024537 0.367048 0.001055 -0.996523 0.083307 1.000000
0.319976 0.024537 0.443877 0.000978 0.999999 0.000978 1.000000
0.319976 0.024537 0.847753 0.000978 0.999999 0.000978 1.000000
0.034490 0.567370 0.727401 -0.313930 -0.139977 0.939071 1.000000
0.071571 0.003444 0.913304 0.000978 0.999999 0.000978 1.000000
0.071571 0.003444 0.906784 0.000978 0.999999 0.000978 1.000000
0.071571 0.003444 0.148899 0.000978 0.999999 0.000978 1.000000
0.473684 0.004305 0.616740 0.594430 0.703107 0.390249 1.000000
0.024721 0.007318 0.134449 0.000978 0.999999 0.000978 1.000000
0.024721 0.007318 0.744846 0.000978 0.999999 0.000978 1.000000
0.024721 0.007318 0.931806 0.000978 0.999999 0.000978 1.000000
0.024721 0.007318 0.300617 0.000978 0.999999 0.000978 1.000000
0.024721 0.007318 0.896035 0.000978 0.999999 0.000978 1.000000
0.024721 0.007318 0.552247 0.000978 0.999999 0.000978 1.000000
0.024721 0.007318 0.943260 0.000978 0.999999 0.000978 1.000000
0.108453 0.568231 0.820088 0.792000 -0.586050 0.171120 1.000000
0.345893 0.112355 0.958767 0.001314 -0.889912 0.456129 1.000000
0.474282 0.022385 0.360881 0.003301 -0.991385 0.130938 1.000000
0.068581 0.020663 0.468546 0.000978 0.999999 0.000978 1.000000
0.068581 0.020663 0.817269 0.000978 0.999999 0.000978 1.000000
0.068581 0.020663 0.874714 0.001349 -0.842882 0.538096 1.000000
0.049043 0.023676 0.876652 0.001349 -0.842882 0.538096 1.000000
0.352472 0.569092 0.120881 0.435579 0.359551 0.825224 1.000000
0.053828 0.301765 0.708722 0.835112 -0.214482 -0.506543 1.000000
0.053828 0.301765 0.537974 0.318945 -0.402149 0.858225 1.000000
0.474681 0.100301 0.559295 0.028941 -0.836546 0.547132 1.000000
0.136762 0.024107 0.430132 0.000978 0.999999 0.000978 1.000000
0.136762 0.024107 0.983965 0.000978 0.999999 0.000978 1.000000
0.136762 0.024107 0.759648 0.000978 0.999999 0.000978 1.000000
0.136762 0.024107 0.459912 0.000978 0.999999 0.000978 1.000000
0.136762 0.024107 0.930749 0.000978 0.999999 0.000978 1.000000
0.136762 0.024107 0.997181 0.000978 0.999999 0.000978 1.000000
0.388756 0.569953 0.920705 0.180631 -0.799938 0.572252 1.000000
0.475279 0.401636 0.202467 0.740450 0.656000 -0.146280 1.000000
0.475279 0.401636 0.844229 0.333333 -0.837244 -0.433489 1.000000
0.066786 0.229875 0.993128 0.001369 -0.606331 0.795211 1.000000
0.475678 0.053810 0.047401 0.001160 0.977717 0.209925 1.000000
0.475877 0.082652 0.306079 -0.534988 0.841506 -0.075210 1.000000
0.100279 0.559191 0.457269 0.694315 0.419240 -0.584948 1.000000
0.371013 0.262591 0.775859 0.265942 0.921454 0.283192 1.000000
0.371013 0.262591 0.944493 -0.144199 -0.190138 0.971110 1.000000
0.371013 0.262591 0.893216 0.888024 -0.070434 0.454370 1.000000
0.371013 0.262591 0.102026 0.972700 0.045044 -0.227653 1.000000
0.476276 0.007318 0.134449 0.000978 0.999999 0.000978 1.000000
0.476276 0.007318 0.744846 0.000978 0.999999 0.000978 1.000000
0.476276 0.007318 0.931806 0.000978 0.999999 0.000978 1.000000
0.476276 0.007318 0.300617 0.000978 0.999999 0.000978 1.000000
0.476276 0.007318 0.896035 0.000978 0.999999 0.000978 1.000000
0.476276 0.007318 0.552247 0.000978 0.999999 0.000978 1.000000
0.476276 0.007318 0.943260 0.000978 0.999999 0.000978 1.000000
0.039872 0.570383 0.502026 0.438260 0.148003 0.886579 1.000000
0.476675 0.089970 0.330749 -0.763656 0.637115 -0.104469 1.000000
0.476675 0.089970 0.778326 0.011677 -0.996757 0.079613 1.000000
0.476675 0.089970 0.427665 0.076871 0.717947 0.691840 1.000000
0.034490 0.570814 0.936740 -0.070878 -0.131299 0.988806 1.000000
0.216707 0.031855 0.652511 0.000978 0.999999 0.000978 1.000000
0.355662 0.151959 0.972687 -0.432384 0.869289 0.239544 1.000000
0.477073 0.414120 0.255859 0.537606 -0.127443 0.833509 1.000000
0.182018 0.571244 0.293216 0.421964 0.816859 -0.393303 1.000000
0.182018 0.571244 0.404934 -0.258601 -0.562652 0.785206 1.000000
0.182018 0.571244 0.214626 0.233557 0.493064 0.838057 1.000000
0.118022 0.038313 0.899207 0.001110 -0.147635 0.989041 1.000000
0.118022 0.038313 0.964229 0.001375 0.639507 0.768784 1.000000
0.477273 0.168317 0.891630 0.000978 -0.999999 0.000978 1.000000
0.477273 0.168317 0.882467 0.000978 0.999999 0.000978 1.000000
0.477273 0.168317 0.954537 -0.003761 0.941423 0.337207 1.000000
0.477273 0.168317 0.264493 0.000978 -0.999999 0.000978 1.000000
0.477273 0.168317 0.262379 0.000978 0.999999 0.000978 1.000000
0.292065 0.002583 0.756123 -0.186817 0.395357 -0.899329 1.000000
0.348285 0.007318 0.134449 0.000978 0.999999 0.000978 1.000000
0.348285 0.007318 0.744846 0.000978 0.999999 0.000978 1.000000
0.348285 0.007318 0.931806 0.000978 0.999999 0.000978 1.000000
0.348285 0.007318 0.300617 0.000978 0.999999 0.000978 1.000000
0.348285 0.007318 0.896035 0.000978 0.999999 0.000978 1.000000
0.348285 0.007318 0.552247 0.000978 0.999999 0.000978 1.000000
0.348285 0.007318 0.943260 0.000978 0.999999 0.000978 1.000000
0.477472 0.572105 0.614097 -0.236439 0.967252 0.092300 1.000000
0.477671 0.572536 0.355947 0.702918 -0.658289 0.269372 1.000000
0.477671 0.572536 0.992247 -0.097510 0.589428 0.801914 1.000000
0.477871 0.572966 0.027489 0.226973 -0.971148 0.073177 1.000000
0.212121 0.197589 0.901322 0.770965 -0.073494 0.632623 1.000000
0.212121 0.197589 0.573744 0.001362 0.581753 0.813364 1.000000
0.212121 0.197589 0.163172 0.001266 0.365926 0.930643 1.000000
0.478070 0.487731 0.470485 0.503034 0.479792 0.718858 1.000000
0.212121 0.020663 0.468546 0.000978 0.999999 0.000978 1.000000
0.212121 0.020663 0.817269 0.000978 0.999999 0.000978 1.000000
0.212121 0.020663 0.874714 0.000978 0.999999 0.000978 1.000000
0.411882 0.024107 0.430132 0.000978 0.999999 0.000978 1.000000
0.411882 0.024107 0.983965 0.000978 0.999999 0.000978 1.000000
0.411882 0.024107 0.759648 0.000978 0.999999 0.000978 1.000000
0.411882 0.024107 0.459912 0.000978 0.999999 0.000978 1.000000
0.411882 0.024107 0.930749 0.001114 0.152643 0.988281 1.000000
0.411882 0.024107 0.997181 0.001079 0.111142 0.993804 1.000000
0.196172 0.028842 0.228899 0.000978 0.999999 0.000978 1.000000
0.478469 0.320276 0.391189 0.333984 -0.753482 0.566321 1.000000
0.287879 0.112355 0.958767 0.001314 -0.889912 0.456129 1.000000
0.263955 0.007318 0.134449 0.000978 0.999999 0.000978 1.000000
0.263955 0.007318 0.744846 0.000978 0.999999 0.000978 1.000000
0.263955 0.007318 0.931806 0.000978 0.999999 0.000978 1.000000
0.263955 0.007318 0.300617 0.000978 0.999999 0.000978 1.000000
0.263955 0.007318 0.896035 0.000978 0.999999 0.000978 1.000000
0.263955 0.007318 0.552247 0.000978 0.999999 0.000978 1.000000
0.263955 0.007318 0.943260 0.000978 0.999999 0.000978 1.000000
0.019537 0.560482 0.272423 -0.368225 0.307611 0.877374 1.000000
0.019537 0.560482 0.816035 0.749569 0.344834 0.565010 1.000000
0.478668 0.573827 0.989427 -0.097510 0.589428 0.801914 1.000000
0.478668 0.573827 0.274714 -0.317046 -0.943177 -0.099491 1.000000
0.478668 0.573827 0.402115 -0.278795 -0.945185 -0.169997 1.000000
0.479067 0.007318 0.134449 0.000978 0.999999 0.000978 1.000000
0.479067 0.007318 0.744846 0.000978 0.999999 0.000978 1.000000
0.479067 0.007318 0.931806 0.000978 0.999999 0.000978 1.000000
0.479067 0.007318 0.300617 0.000978 0.999999 0.000978 1.000000
0.479067 0.007318 0.896035 0.000978 0.999999 0.000978 1.000000
0.479067 0.007318 0.552247 0.000978 0.999999 0.000978 1.000000
0.479067 0.007318 0.943260 0.000978 0.999999 0.000978 1.000000
0.213716 0.009040 0.540617 0.000978 0.999999 0.000978 1.000000
0.257974 0.031855 0.652511 0.000978 0.999999 0.000978 1.000000
0.234450 0.031855 0.652511 0.001279 -0.387428 0.921899 1.000000
0.226077 0.024537 0.367048 0.000978 0.999999 0.000978 1.000000
0.226077 0.024537 0.443877 0.000978 0.999999 0.000978 1.000000
0.226077 0.024537 0.847753 0.000978 0.999999 0.000978 1.000000
0.241826 0.575549 0.115066 0.122175 0.584378 0.802232 1.000000
0.241826 0.575549 0.284934 -0.381989 -0.265145 0.885315 1.000000
0.241826 0.575549 0.192952 0.103765 -0.868498 0.484710 1.000000
0.043660 0.027981 0.049692 0.000978 0.999999 0.000978 1.000000
0.043660 0.027981 0.072775 0.000978 0.999999 0.000978 1.000000
0.043660 0.027981 0.997004 0.001079 0.111142 0.993804 1.000000
0.022927 0.139905 0.008987 0.000978 0.999999 0.000978 1.000000
0.022927 0.139905 0.611278 0.000978 0.999999 0.000978 1.000000
0.022927 0.139905 0.852159 0.001184 0.242814 0.970072 1.000000
0.235048 0.048214 0.200705 0.001373 -0.624527 0.781002 1.000000
0.235048 0.048214 0.655330 0.001279 -0.387428 0.921899 1.000000
0.235048 0.048214 0.380088 0.001219 0.291258 0.956644 1.000000
0.235048 0.048214 0.213216 0.000978 0.999999 0.000978 1.000000
0.163278 0.322858 0.559824 0.886261 0.378118 -0.267522 1.000000
0.163278 0.322858 0.128282 0.687685 0.351193 0.635415 1.000000
0.163278 0.322858 0.996123 0.162841 -0.470918 0.867017 1.000000
0.163278 0.322858 0.303436 0.959404 -0.262833 0.102285 1.000000
0.163278 0.322858 0.996652 0.162841 -0.470918 0.867017 1.000000
0.163278 0.322858 0.241586 -0.384046 0.667547 0.637879 1.000000
0.001994 0.374946 0.126520 -0.677467 -0.377469 0.631313 1.000000
0.001994 0.374946 0.599648 0.795366 -0.508460 -0.329941 1.000000
0.001994 0.374946 0.479824 -0.441616 0.671589 0.594931 1.000000
0.082536 0.034008 0.042291 0.126699 0.734853 0.666287 1.000000
0.082536 0.034008 0.585727 -0.001325 0.881065 0.472993 1.000000
0.082536 0.034008 0.160705 0.146280 -0.740450 0.656000 1.000000
0.082536 0.034008 0.381850 0.001219 0.291258 0.956644 1.000000
0.481260 0.023676 0.876652 0.865876 0.249336 0.433694 1.000000
0.481459 0.009040 0.540617 0.000978 0.999999 0.000978 1.000000
0.481659 0.024107 0.430132 0.000978 0.999999 0.000978 1.000000
0.481659 0.024107 0.983965 0.000978 0.999999 0.000978 1.000000
0.481659 0.024107 0.759648 0.000978 0.999999 0.000978 1.000000
0.481659 0.024107 0.459912 0.001377 0.654300 0.756234 1.000000
0.481659 0.024107 0.930749 0.001114 0.152643 0.988281 1.000000
0.481659 0.024107 0.997181 0.000978 0.999999 0.000978 1.000000
0.481858 0.024107 0.430132 0.000978 0.999999 0.000978 1.000000
0.481858 0.024107 0.983965 0.000978 0.999999 0.000978 1.000000
0.481858 0.024107 0.759648 0.001351 -0.544370 0.838844 1.000000
0.481858 0.024107 0.459912 0.001377 0.654300 0.756234 1.000000
0.481858 0.024107 0.930749 0.001114 0.152643 0.988281 1.000000
0.481858 0.024107 0.997181 0.000978 0.999999 0.000978 1.000000
0.050638 0.028842 0.228899 0.000978 0.999999 0.000978 1.000000
0.093501 0.024537 0.367048 0.000978 0.999999 0.000978 1.000000
0.093501 0.024537 0.443877 0.000978 0.999999 0.000978 1.000000
0.093501 0.024537 0.847753 0.000978 0.999999 0.000978 1.000000
0.482057 0.009040 0.540617 0.000978 0.999999 0.000978 1.000000
0.482257 0.544985 0.398767 -0.278795 -0.945185 -0.169997 1.000000
0.482257 0.544985 0.651278 0.485014 -0.843833 0.229583 1.000000
0.366627 0.112355 0.958767 0.001314 -0.889912 0.456129 1.000000
0.482656 0.213947 0.160529 0.993952 -0.032063 -0.105034 1.000000
0.482656 0.213947 0.942026 0.785474 0.266022 0.558804 1.000000
0.482656 0.213947 0.732511 0.001291 0.912475 0.409130 1.000000
0.482656 0.213947 0.135154 -0.559289 -0.826958 -0.057760 1.000000
0.482855 0.153250 0.757004 -0.131869 -0.494145 0.859320 1.000000
0.482855 0.153250 0.899559 0.001371 0.788169 0.615457 1.000000
0.482855 0.153250 0.997709 -0.375988 0.858739 -0.348137 1.000000
0.047249 0.019802 0.966344 0.001038 0.065416 0.997858 1.000000
0.054426 0.015067 0.926520 0.001079 -0.111142 0.993804 1.000000
0.054426 0.015067 0.394537 0.000978 0.999999 0.000978 1.000000
0.076555 0.219113 0.680881 0.000978 0.999999 0.000978 1.000000
0.076555 0.219113 0.776564 0.000978 0.999999 0.000978 1.000000
0.076555 0.219113 0.669427 0.000978 -0.999999 0.000978 1.000000
0.076555 0.219113 0.450220 0.001139 -0.983039 0.183394 1.000000
0.483652 0.112785 0.886167 0.374770 -0.412721 0.830186 1.000000
0.483852 0.168317 0.891630 0.315159 0.885158 0.342301 1.000000
0.483852 0.168317 0.882467 0.000978 -0.999999 0.000978 1.000000
0.483852 0.168317 0.954537 0.001246 0.943059 0.332624 1.000000
0.483852 0.168317 0.264493 0.000978 0.999999 0.000978 1.000000
0.483852 0.168317 0.262379 0.000978 -0.999999 0.000978 1.000000
0.339314 0.103745 0.141498 0.017812 0.837151 0.546683 1.000000
0.339314 0.103745 0.691101 0.001376 -0.766300 0.642481 1.000000
0.339314 0.103745 0.637181 -0.242987 0.282775 -0.927899 1.000000
0.339314 0.103745 0.837004 0.491822 -0.059573 0.868655 1.000000
0.339314 0.103745 0.402996 0.546131 -0.748281 0.376586 1.000000
0.339314 0.103745 0.744317 -0.250728 0.023014 -0.967784 1.000000
0.339314 0.103745 0.761938 0.956605 -0.207376 0.204700 1.000000
0.339314 0.103745 0.852687 0.811295 -0.173096 0.558424 1.000000
0.339314 0.103745 0.951894 -0.169208 -0.866639 0.469368 1.000000
0.339314 0.103745 0.973568 -0.016637 0.932952 0.359615 1.000000
0.484051 0.579423 0.721938 -0.240327 0.940471 0.240327 1.000000
0.115829 0.151528 0.974097 -0.057263 -0.853363 0.518163 1.000000
0.115829 0.151528 0.415683 -0.021756 -0.166031 0.985880 1.000000
0.246212 0.062419 0.943436 0.001308 -0.443546 0.896251 1.000000
0.484450 0.579854 0.894626 -0.176876 0.560864 0.808793 1.000000
0.158293 0.490314 0.218502 -0.648854 -0.251016 0.718317 1.000000
0.158293 0.490314 0.987489 0.246492 0.440056 0.863477 1.000000
0.158293 0.490314 0.930925 0.749665 -0.510166 -0.421584 1.000000
0.158293 0.490314 0.959471 0.768443 0.635304 -0.076700 1.000000
0.158293 0.490314 0.265903 0.159365 -0.983751 0.082678 1.000000
0.375199 0.022815 0.691806 0.241720 0.575449 0.781300 1.000000
0.375199 0.022815 0.917885 0.001334 -0.500299 0.865851 1.000000
0.029107 0.002583 0.756123 0.001089 0.123096 0.992394 1.000000
0.484848 0.373224 0.623965 0.974797 0.037261 -0.219960 1.000000
0.043860 0.580715 0.366872 0.362849 0.501538 0.785366 1.000000
0.030502 0.045631 0.264141 0.000978 0.999999 0.000978 1.000000
0.393541 0.024537 0.367048 0.000978 0.999999 0.000978 1.000000
0.393541 0.024537 0.443877 0.000978 0.999999 0.000978 1.000000
0.393541 0.024537 0.847753 0.000978 0.999999 0.000978 1.000000
0.018142 0.112355 0.958767 0.000978 0.999999 0.000978 1.000000
0.132974 0.072751 0.946079 0.001345 -0.528668 0.848828 1.000000
0.019737 0.581145 0.155771 0.964414 -0.261221 0.040855 1.000000
0.485646 0.007318 0.134449 0.000978 0.999999 0.000978 1.000000
0.485646 0.007318 0.744846 0.001067 0.995277 0.097074 1.000000
0.485646 0.007318 0.931806 -0.626415 0.521731 -0.579138 1.000000
0.485646 0.007318 0.300617 0.000978 0.999999 0.000978 1.000000
0.485646 0.007318 0.896035 0.000978 0.999999 0.000978 1.000000
0.485646 0.007318 0.552247 0.000978 0.999999 0.000978 1.000000
0.485646 0.007318 0.943260 0.000978 0.999999 0.000978 1.000000
0.282695 0.028842 0.228899 0.000978 0.999999 0.000978 1.000000
0.024721 0.139905 0.008987 0.000978 0.999999 0.000978 1.000000
0.024721 0.139905 0.611278 0.000978 0.999999 0.000978 1.000000
0.024721 0.139905 0.852159 0.001184 0.242814 0.970072 1.000000
0.236643 0.007318 0.134449 0.000978 0.999999 0.000978 1.000000
0.236643 0.007318 0.744846 0.000978 0.999999 0.000978 1.000000
0.236643 0.007318 0.931806 0.000978 0.999999 0.000978 1.000000
0.236643 0.007318 0.300617 0.000978 0.999999 0.000978 1.000000
0.236643 0.007318 0.896035 0.000978 0.999999 0.000978 1.000000
0.236643 0.007318 0.552247 0.000978 0.999999 0.000978 1.000000
0.236643 0.007318 0.943260 0.000978 0.999999 0.000978 1.000000
0.486443 0.082652 0.306079 -0.574936 0.816718 0.049200 1.000000
0.324163 0.003444 0.913304 0.000978 0.999999 0.000978 1.000000
0.324163 0.003444 0.906784 0.000978 0.999999 0.000978 1.000000
0.324163 0.003444 0.148899 0.000978 0.999999 0.000978 1.000000
0.057616 0.245803 0.364053 0.001359 -0.569351 0.822094 1.000000
0.057616 0.245803 0.142203 0.001323 -0.475046 0.879960 1.000000
0.202751 0.007318 0.134449 0.000978 0.999999 0.000978 1.000000
0.202751 0.007318 0.744846 0.000978 0.999999 0.000978 1.000000
0.202751 0.007318 0.931806 0.000978 0.999999 0.000978 1.000000
0.202751 0.007318 0.300617 0.000978 0.999999 0.000978 1.000000
0.202751 0.007318 0.896035 0.000978 0.999999 0.000978 1.000000
0.202751 0.007318 0.552247 0.000978 0.999999 0.000978 1.000000
0.202751 0.007318 0.943260 0.000978 0.999999 0.000978 1.000000
0.452951 0.583297 0.405815 -0.421372 0.902151 0.092564 1.000000
0.487041 0.011192 0.464493 0.001377 0.654300 0.756234 1.000000
0.487041 0.011192 0.576211 -0.042947 -0.968155 0.246640 1.000000
0.487041 0.011192 0.926344 0.576691 -0.084850 0.812544 1.000000
0.487241 0.071459 0.352775 0.000978 0.999999 0.000978 1.000000
0.487241 0.071459 0.962819 0.001125 0.986241 0.165311 1.000000
0.487440 0.009471 0.369868 0.057578 0.400365 0.914545 1.000000
0.487440 0.009471 0.735859 0.001067 0.995277 0.097074 1.000000
0.487440 0.009471 0.419912 0.001337 -0.862174 0.506611 1.000000
0.487440 0.009471 0.755771 0.095026 -0.409023 0.907563 1.000000
0.113238 0.151959 0.972687 -0.026325 -0.821608 0.569445 1.000000
0.488038 0.024107 0.430132 0.000978 0.999999 0.000978 1.000000
0.488038 0.024107 0.983965 0.000978 0.999999 0.000978 1.000000
0.488038 0.024107 0.759648 0.001351 -0.544370 0.838844 1.000000
0.488038 0.024107 0.459912 0.001377 0.654300 0.756234 1.000000
0.488038 0.024107 0.930749 0.542719 0.048831 0.838494 1.000000
0.488038 0.024107 0.997181 0.000978 0.999999 0.000978 1.000000
0.155104 0.079638 0.376211 -0.218975 0.300914 0.928171 1.000000
0.024721 0.123117 0.869956 0.000978 0.999999 0.000978 1.000000
0.437600 0.584589 0.528106 -0.769432 0.519974 -0.370947 1.000000
0.437600 0.584589 0.477885 0.234590 -0.925565 -0.297148 1.000000
0.488238 0.585019 0.961938 0.874498 -0.484025 -0.031184 1.000000
0.488238 0.585019 0.478062 -0.680882 0.621531 -0.387427 1.000000
0.471292 0.139905 0.008987 -0.128053 0.902002 0.412304 1.000000
0.471292 0.139905 0.611278 0.607388 0.556631 -0.566782 1.000000
0.471292 0.139905 0.852159 0.728785 -0.044040 -0.683325 1.000000
0.094099 0.024537 0.367048 0.000978 0.999999 0.000978 1.000000
0.094099 0.024537 0.443877 0.000978 0.999999 0.000978 1.000000
0.094099 0.024537 0.847753 0.000978 0.999999 0.000978 1.000000
0.488437 0.053810 0.047401 0.001346 -0.531813 0.846861 1.000000
0.488836 0.053810 0.047401 0.001346 -0.531813 0.846861 1.000000
0.489035 0.053810 0.047401 0.001346 -0.531813 0.846861 1.000000
0.489234 0.120103 0.500793 -0.012256 -0.990489 -0.137042 1.000000
0.489234 0.120103 0.753656 0.152619 0.217841 -0.963978 1.000000
0.489434 0.071459 0.352775 0.000978 0.999999 0.000978 1.000000
0.489434 0.071459 0.962819 0.001125 0.986241 0.165311 1.000000
0.394936 0.153250 0.757004 -0.229819 0.535217 -0.812851 1.000000
0.394936 0.153250 0.899559 0.000978 0.999999 0.000978 1.000000
0.394936 0.153250 0.997709 0.001081 -0.113516 0.993536 1.000000
0.023923 0.141197 0.842643 0.001028 0.998513 0.054502 1.000000
0.489833 0.045631 0.264141 -0.421933 0.793752 -0.438099 1.000000
0.490032 0.124839 0.414802 0.353473 0.724864 0.591294 1.000000
0.012161 0.412828 0.140969 0.003962 -0.888805 0.458269 1.000000
0.065989 0.003444 0.913304 0.000978 0.999999 0.000978 1.000000
0.065989 0.003444 0.906784 0.000978 0.999999 0.000978 1.000000
0.065989 0.003444 0.148899 0.000978 0.999999 0.000978 1.000000
0.226077 0.412828 0.140969 0.517459 0.228787 -0.824556 1.000000
0.007576 0.009040 0.540617 0.000978 0.999999 0.000978 1.000000
0.490431 0.107619 0.721586 0.001071 0.994811 0.101730 1.000000
0.490431 0.107619 0.922996 0.001379 0.740750 0.671779 1.000000
0.490431 0.107619 0.185551 0.001156 0.204554 0.978855 1.000000
0.179825 0.004305 0.616740 0.001366 0.594083 0.804402 1.000000
0.010566 0.440809 0.403700 0.410854 -0.906091 -0.100984 1.000000
0.122408 0.297891 0.902379 0.001087 -0.992690 0.120688 1.000000
0.135367 0.095136 0.428194 0.000978 0.999999 0.000978 1.000000
0.490630 0.585880 0.244581 -0.165629 -0.940391 0.297038 1.000000
0.199561 0.439948 0.818326 0.342985 0.937666 0.056077 1.000000
0.199561 0.439948 0.781322 0.257680 0.964101 -0.064106 1.000000
0.199561 0.439948 0.263436 0.667613 0.470174 -0.577260 1.000000
0.071571 0.007318 0.134449 0.000978 0.999999 0.000978 1.000000
0.071571 0.007318 0.744846 0.000978 0.999999 0.000978 1.000000
0.071571 0.007318 0.931806 0.000978 0.999999 0.000978 1.000000
0.071571 0.007318 0.300617 0.000978 0.999999 0.000978 1.000000
0.071571 0.007318 0.896035 0.000978 0.999999 0.000978 1.000000
0.071571 0.007318 0.552247 0.000978 0.999999 0.000978 1.000000
0.071571 0.007318 0.943260 0.000978 0.999999 0.000978 1.000000
0.018142 0.030133 0.288106 0.000978 0.999999 0.000978 1.000000
0.101675 0.019372 0.992423 0.001273 -0.925729 0.378186 1.000000
0.101675 0.019372 0.554009 0.001248 -0.335625 0.941995 1.000000
0.183413 0.141627 0.027665 0.000978 0.999999 0.000978 1.000000
0.183413 0.141627 0.851982 0.001184 0.242814 0.970072 1.000000
0.058612 0.053810 0.047401 0.186117 -0.029264 0.982092 1.000000
0.490829 0.439518 0.908546 0.704308 -0.707188 -0.061933 1.000000
0.490829 0.439518 0.346256 -0.234203 -0.142615 0.961670 1.000000
0.490829 0.439518 0.493744 0.348503 -0.552742 -0.756982 1.000000
0.377791 0.062419 0.943436 0.201374 -0.834264 0.513277 1.000000
0.411683 0.003444 0.913304 0.000978 0.999999 0.000978 1.000000
0.411683 0.003444 0.906784 0.000978 0.999999 0.000978 1.000000
0.411683 0.003444 0.148899 0.000978 0.999999 0.000978 1.000000
0.170654 0.450280 0.544317 0.401870 0.892883 -0.203127 1.000000
0.446172 0.071459 0.352775 0.001314 0.889912 0.456129 1.000000
0.446172 0.071459 0.962819 -0.711259 0.210109 -0.670794 1.000000
0.491228 0.039604 0.103789 -0.433738 0.883541 0.176708 1.000000
0.281699 0.024107 0.430132 0.000978 0.999999 0.000978 1.000000
0.281699 0.024107 0.983965 0.000978 0.999999 0.000978 1.000000
0.281699 0.024107 0.759648 0.000978 0.999999 0.000978 1.000000
0.281699 0.024107 0.459912 0.000978 0.999999 0.000978 1.000000
0.281699 0.024107 0.930749 0.000978 0.999999 0.000978 1.000000
0.281699 0.024107 0.997181 0.001079 0.111142 0.993804 1.000000
0.491826 0.074042 0.956476 0.001125 0.986241 0.165311 1.000000
0.175239 0.024537 0.367048 0.000978 0.999999 0.000978 1.000000
0.175239 0.024537 0.443877 0.000978 0.999999 0.000978 1.000000
0.175239 0.024537 0.847753 0.000978 0.999999 0.000978 1.000000
0.492225 0.266466 0.472775 0.204250 0.372286 0.905365 1.000000
0.034490 0.151528 0.974097 0.001089 0.992394 0.123096 1.000000
0.034490 0.151528 0.415683 0.001052 -0.081042 0.996710 1.000000
0.010167 0.007318 0.134449 0.000978 0.999999 0.000978 1.000000
0.010167 0.007318 0.744846 0.000978 0.999999 0.000978 1.000000
0.010167 0.007318 0.931806 0.000978 0.999999 0.000978 1.000000
0.010167 0.007318 0.300617 0.000978 0.999999 0.000978 1.000000
0.010167 0.007318 0.896035 0.000978 0.999999 0.000978 1.000000
0.010167 0.007318 0.552247 0.000978 0.999999 0.000978 1.000000
0.010167 0.007318 0.943260 0.000978 0.999999 0.000978 1.000000
0.492424 0.159277 0.872247 0.001251 -0.939829 0.341642 1.000000
0.492424 0.159277 0.392952 0.482803 0.699981 0.526239 1.000000
0.062600 0.112355 0.958767 0.000978 0.999999 0.000978 1.000000
0.223086 0.095136 0.428194 0.001154 0.979409 0.201881 1.000000
0.493022 0.587172 0.956300 -0.347526 0.538261 0.767790 1.000000
0.493022 0.587172 0.435419 -0.643247 0.765506 -0.015282 1.000000
0.493022 0.587172 0.035947 -0.003500 -0.976427 0.215817 1.000000
0.047049 0.275075 0.499383 0.000978 0.999999 0.000978 1.000000
0.157695 0.074042 0.956476 0.001024 -0.998739 0.050193 1.000000
0.054625 0.112355 0.958767 0.000978 0.999999 0.000978 1.000000
0.152313 0.024537 0.367048 0.001055 -0.996523 0.083307 1.000000
0.152313 0.024537 0.443877 0.000978 0.999999 0.000978 1.000000
0.152313 0.024537 0.847753 0.000978 0.999999 0.000978 1.000000
0.107456 0.033147 0.991366 0.000978 0.999999 0.000978 1.000000
0.107456 0.033147 0.965991 0.001375 0.639507 0.768784 1.000000
0.018740 0.009471 0.369868 -0.242046 0.422452 0.873469 1.000000
0.018740 0.009471 0.735859 0.001067 0.995277 0.097074 1.000000
0.018740 0.009471 0.419912 0.431638 -0.409174 0.803906 1.000000
0.018740 0.009471 0.755771 0.001311 -0.444588 0.895734 1.000000
0.253788 0.254412 0.500088 0.935966 -0.308302 0.170050 1.000000
0.493620 0.062419 0.943436 0.120431 0.685415 -0.718125 1.000000
0.346890 0.062419 0.943436 -0.006580 -0.448783 0.893617 1.000000
0.493820 0.038313 0.899207 0.001184 -0.242814 0.970072 1.000000
0.493820 0.038313 0.964229 0.026063 0.143911 0.989247 1.000000
0.494219 0.107619 0.721586 0.001071 0.994811 0.101730 1.000000
0.494219 0.107619 0.922996 0.001379 0.740750 0.671779 1.000000
0.494219 0.107619 0.185551 0.001156 0.204554 0.978855 1.000000
0.312201 0.112355 0.958767 0.000978 0.999999 0.000978 1.000000
0.077751 0.238054 0.105551 0.000978 -0.999999 0.000978 1.000000
0.077751 0.238054 0.094978 0.000978 0.999999 0.000978 1.000000
0.204147 0.590185 0.503436 -0.023213 -0.265113 0.963938 1.000000
0.012560 0.073612 0.441762 0.001291 0.409130 0.912475 1.000000
0.012560 0.073612 0.891454 0.757036 -0.641026 -0.126421 1.000000
0.012560 0.073612 0.308546 0.001354 0.553762 0.832674 1.000000
0.495415 0.591046 0.649163 0.512517 -0.657030 -0.552846 1.000000
0.495415 0.591046 0.949604 -0.102359 0.921228 0.375315 1.000000
0.496013 0.009901 0.954890 0.001061 -0.995927 0.090153 1.000000
0.056220 0.105898 0.169692 -0.051897 -0.955660 0.289863 1.000000
0.019737 0.563065 0.635066 0.550650 0.454161 -0.700373 1.000000
0.496411 0.591907 0.852863 0.001075 -0.104293 0.994546 1.000000
0.496411 0.591907 0.980088 0.364793 0.855323 0.367898 1.000000
0.362839 0.243220 0.068194 0.001102 -0.137718 0.990471 1.000000
0.362839 0.243220 0.529515 0.001335 0.864020 0.503455 1.000000
0.362839 0.243220 0.935507 0.001379 -0.748548 0.663079 1.000000
0.116228 0.019372 0.992423 0.001273 -0.925729 0.378186 1.000000
0.116228 0.019372 0.554009 0.001248 -0.335625 0.941995 1.000000
0.012560 0.123117 0.869956 0.000978 0.999999 0.000978 1.000000
0.398525 0.436074 0.989604 -0.313596 -0.331602 0.889774 1.000000
0.184609 0.326733 0.021498 0.701367 -0.616353 -0.358041 1.000000
0.496810 0.007318 0.134449 0.000978 0.999999 0.000978 1.000000
0.496810 0.007318 0.744846 0.000978 0.999999 0.000978 1.000000
0.496810 0.007318 0.931806 0.000978 0.999999 0.000978 1.000000
0.496810 0.007318 0.300617 0.000978 0.999999 0.000978 1.000000
0.496810 0.007318 0.896035 0.000978 0.999999 0.000978 1.000000
0.496810 0.007318 0.552247 0.000978 0.999999 0.000978 1.000000
0.496810 0.007318 0.943260 0.000978 0.999999 0.000978 1.000000
0.497010 0.077056 0.896388 0.207081 0.503343 0.838906 1.000000
0.497010 0.077056 0.055154 0.009481 -0.532286 0.846511 1.000000
0.497010 0.077056 0.792599 0.215049 0.855684 0.470701 1.000000
0.497010 0.077056 0.851806 0.060864 -0.177819 0.982179 1.000000
0.497010 0.077056 0.678062 0.051447 -0.855128 0.515858 1.000000
0.497010 0.077056 0.158767 0.110199 0.488023 0.865847 1.000000
0.497010 0.077056 0.508546 -0.012256 -0.990489 -0.137042 1.000000
0.497010 0.077056 0.050749 0.009481 -0.532286 0.846511 1.000000
0.384769 0.082221 0.440176 0.040214 0.935305 0.351550 1.000000
0.003788 0.112355 0.958767 0.000978 0.999999 0.000978 1.000000
0.497209 0.007318 0.134449 0.000978 0.999999 0.000978 1.000000
0.497209 0.007318 0.744846 0.000978 0.999999 0.000978 1.000000
0.497209 0.007318 0.931806 0.000978 0.999999 0.000978 1.000000
0.497209 0.007318 0.300617 0.000978 0.999999 0.000978 1.000000
0.497209 0.007318 0.896035 0.000978 0.999999 0.000978 1.000000
0.497209 0.007318 0.552247 0.000978 0.999999 0.000978 1.000000
0.497209 0.007318 0.943260 0.000978 0.999999 0.000978 1.000000
0.280303 0.292294 0.225727 0.700320 0.625227 0.344446 1.000000
0.280303 0.292294 0.388018 -0.446537 -0.894407 0.025326 1.000000
0.280303 0.292294 0.883348 0.597526 0.794254 0.110109 1.000000
0.280303 0.292294 0.149780 0.948255 -0.055326 -0.312654 1.000000
0.280303 0.292294 0.467313 0.084110 0.186505 0.978847 1.000000
0.280303 0.292294 0.989780 -0.073287 -0.089072 0.993325 1.000000
0.280303 0.292294 0.380441 0.448755 0.865993 -0.220625 1.000000
0.280303 0.292294 0.148194 0.948255 -0.055326 -0.312654 1.000000
0.280303 0.292294 0.250573 0.657029 0.753854 -0.004150 1.000000
0.280303 0.292294 0.815683 0.448168 0.753514 0.481001 1.000000
0.280303 0.292294 0.039119 0.146427 0.988091 0.047272 1.000000
0.001196 0.050796 0.602643 0.000978 0.999999 0.000978 1.000000
0.296252 0.020663 0.468546 0.001381 -0.722131 0.691755 1.000000
0.296252 0.020663 0.817269 0.000978 0.999999 0.000978 1.000000
0.296252 0.020663 0.874714 0.001349 -0.842882 0.538096 1.000000
0.498006 0.071459 0.352775 0.000978 0.999999 0.000978 1.000000
0.498006 0.071459 0.962819 0.001125 0.986241 0.165311 1.000000
0.073565 0.513560 0.923172 0.603907 0.711923 -0.358416 1.000000
0.165072 0.007318 0.134449 0.000978 0.999999 0.000978 1.000000
0.165072 0.007318 0.744846 0.000978 0.999999 0.000978 1.000000
0.165072 0.007318 0.931806 0.000978 0.999999 0.000978 1.000000
0.165072 0.007318 0.300617 0.000978 0.999999 0.000978 1.000000
0.165072 0.007318 0.896035 0.000978 0.999999 0.000978 1.000000
0.165072 0.007318 0.552247 0.000978 0.999999 0.000978 1.000000
0.165072 0.007318 0.943260 0.000978 0.999999 0.000978 1.000000
0.017145 0.326733 0.021498 0.961132 0.273006 0.041138 1.000000
0.011364 0.079638 0.376211 0.000978 0.999999 0.000978 1.000000
0.001396 0.033147 0.991366 0.000978 0.999999 0.000978 1.000000
0.001396 0.033147 0.965991 0.001375 0.639507 0.768784 1.000000
0.498405 0.084804 0.476476 -0.577914 -0.628460 0.520628 1.000000
0.498604 0.159277 0.872247 0.001251 -0.939829 0.341642 1.000000
0.498604 0.159277 0.392952 0.584310 0.687521 0.431157 1.000000
0.315590 0.550151 0.925286 0.054969 0.157888 0.985926 1.000000
0.330343 0.024537 0.367048 0.001055 -0.996523 0.083307 1.000000
0.330343 0.024537 0.443877 0.000978 0.999999 0.000978 1.000000
0.330343 0.024537 0.847753 0.000978 0.999999 0.000978 1.000000
0.499003 0.009040 0.540617 0.001034 0.998136 0.061026 1.000000
0.001196 0.038313 0.899207 -0.035156 -0.236391 0.971022 1.000000
0.001196 0.038313 0.964229 0.001375 0.639507 0.768784 1.000000
0.059609 0.594059 0.427137 0.999928 -0.010923 0.004965 1.000000
0.310407 0.107619 0.721586 0.216673 0.975627 -0.034716 1.000000
0.310407 0.107619 0.922996 -0.246577 -0.752294 0.610945 1.000000
0.310407 0.107619 0.185551 -0.040476 -0.928345 0.369510 1.000000
0.015351 0.003444 0.913304 0.000978 0.999999 0.000978 1.000000
0.015351 0.003444 0.906784 0.000978 0.999999 0.000978 1.000000
0.015351 0.003444 0.148899 0.000978 0.999999 0.000978 1.000000
0.075159 0.513130 0.152952 -0.053789 0.870277 0.489617 1.000000
0.075159 0.513130 0.844405 -0.100642 -0.994253 0.036496 1.000000
0.075159 0.513130 0.315595 -0.241219 -0.952748 0.184620 1.000000
0.057416 0.007318 0.134449 0.000978 0.999999 0.000978 1.000000
0.057416 0.007318 0.744846 0.000978 0.999999 0.000978 1.000000
0.057416 0.007318 0.931806 0.000978 0.999999 0.000978 1.000000
0.057416 0.007318 0.300617 0.000978 0.999999 0.000978 1.000000
0.057416 0.007318 0.896035 0.000978 0.999999 0.000978 1.000000
0.057416 0.007318 0.552247 0.000978 0.999999 0.000978 1.000000
0.057416 0.007318 0.943260 0.000978 0.999999 0.000978 1.000000
0.499601 0.003444 0.913304 0.000978 -0.999999 0.000978 1.000000
0.499601 0.003444 0.906784 -0.171768 0.980661 0.093802 1.000000
0.499601 0.003444 0.148899 0.001077 0.994066 0.108776 1.000000
0.499801 0.236332 0.598062 -0.513485 -0.048442 -0.856730 1.000000
0.499801 0.236332 0.838062 0.003462 0.979858 0.199665 1.000000
0.500399 0.007318 0.134449 0.000978 0.999999 0.000978 1.000000
0.500399 0.007318 0.744846 0.000978 0.999999 0.000978 1.000000
0.500399 0.007318 0.931806 0.000978 0.999999 0.000978 1.000000
0.500399 0.007318 0.300617 0.000978 0.999999 0.000978 1.000000
0.500399 0.007318 0.896035 0.000978 0.999999 0.000978 1.000000
0.500399 0.007318 0.552247 0.000978 0.999999 0.000978 1.000000
0.500399 0.007318 0.943260 0.000978 0.999999 0.000978 1.000000
0.500997 0.112355 0.958767 0.001353 0.834745 0.550634 1.000000
0.501196 0.547568 0.900441 0.132157 0.990610 -0.035016 1.000000
0.501196 0.547568 0.988194 -0.485466 -0.613132 -0.623211 1.000000
0.501196 0.547568 0.253216 0.257504 0.919248 0.297784 1.000000
0.096292 0.594920 0.772335 -0.295091 0.408234 -0.863867 1.000000
0.096292 0.594920 0.637533 0.753472 -0.616193 -0.229317 1.000000
0.127592 0.121825 0.002115 0.026690 -0.686915 0.726248 1.000000
0.427432 0.003444 0.913304 0.000978 -0.999999 0.000978 1.000000
0.427432 0.003444 0.906784 0.000978 0.999999 0.000978 1.000000
0.427432 0.003444 0.148899 0.000978 0.999999 0.000978 1.000000
0.016946 0.033147 0.991366 0.001089 0.123096 0.992394 1.000000
0.016946 0.033147 0.965991 0.000978 0.999999 0.000978 1.000000
0.133373 0.007318 0.134449 0.000978 0.999999 0.000978 1.000000
0.133373 0.007318 0.744846 0.000978 0.999999 0.000978 1.000000
0.133373 0.007318 0.931806 0.000978 0.999999 0.000978 1.000000
0.133373 0.007318 0.300617 0.000978 0.999999 0.000978 1.000000
0.133373 0.007318 0.896035 0.000978 0.999999 0.000978 1.000000
0.133373 0.007318 0.552247 0.000978 0.999999 0.000978 1.000000
0.133373 0.007318 0.943260 0.000978 0.999999 0.000978 1.000000
0.038876 0.089109 0.153128 0.000978 0.999999 0.000978 1.000000
0.038876 0.089109 0.889692 0.000978 0.999999 0.000978 1.000000
0.468900 0.597503 0.251806 -0.497119 0.861768 0.101133 1.000000
0.463716 0.547568 0.900441 -0.385351 0.922507 -0.022057 1.000000
0.463716 0.547568 0.988194 -0.381568 0.907474 -0.175778 1.000000
0.463716 0.547568 0.253216 -0.772394 0.455598 0.442535 1.000000
0.005781 0.365045 0.345374 0.690223 -0.052874 -0.721662 1.000000
0.502990 0.242789 0.825198 0.088340 -0.800852 0.592312 1.000000
0.043262 0.598364 0.540793 -0.183434 0.029209 0.982598 1.000000
0.437600 0.598795 0.572511 0.880922 0.265627 -0.391688 1.000000
0.503389 0.078777 0.990661 0.620050 0.289997 0.728999 1.000000
0.503389 0.078777 0.188018 0.001156 0.204554 0.978855 1.000000
0.110646 0.002583 0.756123 0.000978 0.999999 0.000978 1.000000
0.503788 0.053810 0.047401 0.169770 0.026563 0.985126 1.000000
0.226475 0.444253 0.175507 -0.452839 -0.855363 -0.251577 1.000000
0.226475 0.444253 0.440000 -0.723377 0.681956 0.107989 1.000000
0.226475 0.444253 0.944670 0.869368 0.128315 -0.477215 1.000000
0.072169 0.599225 0.607753 0.541807 0.609322 -0.578940 1.000000
0.503987 0.599656 0.207048 0.342876 -0.389420 0.854862 1.000000
0.001196 0.186827 0.707313 0.001195 -0.256844 0.966452 1.000000
0.001196 0.186827 0.758767 0.001093 -0.127937 0.991782 1.000000
0.068182 0.123978 0.489868 -0.049886 0.674173 0.736887 1.000000
0.068182 0.123978 0.117181 -0.368580 0.850690 -0.374801 1.000000
0.012959 0.007318 0.134449 0.000978 0.999999 0.000978 1.000000
0.012959 0.007318 0.744846 0.000978 0.999999 0.000978 1.000000
0.012959 0.007318 0.931806 0.000978 0.999999 0.000978 1.000000
0.012959 0.007318 0.300617 0.000978 0.999999 0.000978 1.000000
0.012959 0.007318 0.896035 0.000978 0.999999 0.000978 1.000000
0.012959 0.007318 0.552247 0.000978 0.999999 0.000978 1.000000
0.012959 0.007318 0.943260 0.000978 0.999999 0.000978 1.000000
0.238636 0.024107 0.430132 0.000978 0.999999 0.000978 1.000000
0.238636 0.024107 0.983965 0.000978 0.999999 0.000978 1.000000
0.238636 0.024107 0.759648 0.000978 0.999999 0.000978 1.000000
0.238636 0.024107 0.459912 0.000978 0.999999 0.000978 1.000000
0.238636 0.024107 0.930749 0.000978 0.999999 0.000978 1.000000
0.238636 0.024107 0.997181 0.001079 0.111142 0.993804 1.000000
0.275518 0.600086 0.177974 -0.283774 -0.904252 0.319061 1.000000
0.504386 0.196728 0.984141 0.627218 -0.751113 0.205975 1.000000
0.081938 0.157555 0.326167 0.001264 -0.362873 0.931838 1.000000
0.081938 0.157555 0.436123 0.000978 0.999999 0.000978 1.000000
0.271332 0.024107 0.430132 0.000978 0.999999 0.000978 1.000000
0.271332 0.024107 0.983965 0.000978 0.999999 0.000978 1.000000
0.271332 0.024107 0.759648 0.000978 0.999999 0.000978 1.000000
0.271332 0.024107 0.459912 0.000978 0.999999 0.000978 1.000000
0.271332 0.024107 0.930749 0.000978 0.999999 0.000978 1.000000
0.271332 0.024107 0.997181 0.001079 0.111142 0.993804 1.000000
0.504585 0.124839 0.414802 0.595724 0.599099 0.534970 1.000000
0.504984 0.077486 0.521057 0.125648 0.938981 0.320199 1.000000
0.056619 0.024537 0.367048 0.000978 0.999999 0.000978 1.000000
0.056619 0.024537 0.443877 0.000978 0.999999 0.000978 1.000000
0.056619 0.024537 0.847753 0.000978 0.999999 0.000978 1.000000
0.105463 0.547568 0.900441 -0.170386 0.881057 0.441257 1.000000
0.105463 0.547568 0.988194 0.408580 0.573998 -0.709640 1.000000
0.105463 0.547568 0.253216 0.003062 0.041843 0.999120 1.000000
0.505383 0.303917 0.126696 -0.237403 0.491655 0.837804 1.000000
0.505383 0.303917 0.358767 -0.431660 0.428426 0.793801 1.000000
0.038278 0.030133 0.288106 0.000978 0.999999 0.000978 1.000000
0.452951 0.053379 0.815507 0.000978 0.999999 0.000978 1.000000
0.452951 0.053379 0.823965 0.000978 -0.999999 0.000978 1.000000
0.325558 0.024107 0.430132 0.000978 0.999999 0.000978 1.000000
0.325558 0.024107 0.983965 0.000978 0.999999 0.000978 1.000000
0.325558 0.024107 0.759648 0.000978 0.999999 0.000978 1.000000
0.325558 0.024107 0.459912 0.000978 0.999999 0.000978 1.000000
0.325558 0.024107 0.930749 0.000978 0.999999 0.000978 1.000000
0.325558 0.024107 0.997181 0.001273 -0.925729 0.378186 1.000000
0.281699 0.381834 0.770220 -0.574798 0.765866 -0.288195 1.000000
0.098285 0.151959 0.972687 0.001089 0.992394 0.123096 1.000000
0.016746 0.007318 0.134449 0.000978 0.999999 0.000978 1.000000
0.016746 0.007318 0.744846 0.000978 0.999999 0.000978 1.000000
0.016746 0.007318 0.931806 0.000978 0.999999 0.000978 1.000000
0.016746 0.007318 0.300617 0.000978 0.999999 0.000978 1.000000
0.016746 0.007318 0.896035 0.000978 0.999999 0.000978 1.000000
0.016746 0.007318 0.552247 0.000978 0.999999 0.000978 1.000000
0.016746 0.007318 0.943260 0.000978 0.999999 0.000978 1.000000
0.138955 0.019802 0.966344 0.001038 0.065416 0.997858 1.000000
0.322767 0.123117 0.869956 0.021592 -0.155693 0.987570 1.000000
0.506778 0.159277 0.872247 0.001251 -0.939829 0.341642 1.000000
0.506778 0.159277 0.392952 0.001100 -0.135260 0.990809 1.000000
0.050638 0.112355 0.958767 0.000978 0.999999 0.000978 1.000000
0.507177 0.007318 0.134449 0.000978 0.999999 0.000978 1.000000
0.507177 0.007318 0.744846 0.000978 0.999999 0.000978 1.000000
0.507177 0.007318 0.931806 0.000978 0.999999 0.000978 1.000000
0.507177 0.007318 0.300617 0.000978 0.999999 0.000978 1.000000
0.507177 0.007318 0.896035 0.000978 0.999999 0.000978 1.000000
0.507177 0.007318 0.552247 0.000978 0.999999 0.000978 1.000000
0.507177 0.007318 0.943260 0.000978 0.999999 0.000978 1.000000
0.507576 0.107619 0.721586 0.001071 0.994811 0.101730 1.000000
0.507576 0.107619 0.922996 0.001251 -0.341642 0.939829 1.000000
0.507576 0.107619 0.185551 -0.140610 -0.106960 0.984271 1.000000
0.131380 0.105467 0.243877 0.000978 0.999999 0.000978 1.000000
0.508174 0.222988 0.724229 -0.397611 -0.049203 -0.916234 1.000000
0.262959 0.580715 0.366872 -0.687575 -0.223971 -0.690708 1.000000
0.508373 0.410676 0.713656 0.964897 -0.063992 0.254713 1.000000
0.508373 0.410676 0.318062 0.799672 0.316371 0.510327 1.000000
0.508373 0.410676 0.004934 0.500631 -0.595026 -0.628739 1.000000
0.508373 0.410676 0.509427 0.806077 0.590937 -0.032131 1.000000
0.508573 0.107619 0.721586 0.001071 0.994811 0.101730 1.000000
0.508573 0.107619 0.922996 0.001251 -0.341642 0.939829 1.000000
0.508573 0.107619 0.185551 -0.140610 -0.106960 0.984271 1.000000
0.047847 0.038313 0.899207 0.000978 0.999999 0.000978 1.000000
0.047847 0.038313 0.964229 0.001375 0.639507 0.768784 1.000000
0.199761 0.079638 0.376211 0.082646 0.161700 0.983373 1.000000
0.508971 0.011192 0.464493 0.724573 -0.580640 -0.371282 1.000000
0.508971 0.011192 0.576211 0.097300 -0.969211 0.226191 1.000000
0.508971 0.011192 0.926344 0.001211 0.960094 0.279674 1.000000
0.224880 0.009040 0.540617 0.000978 0.999999 0.000978 1.000000
0.072767 0.024537 0.367048 0.000978 0.999999 0.000978 1.000000
0.072767 0.024537 0.443877 0.000978 0.999999 0.000978 1.000000
0.072767 0.024537 0.847753 0.000978 0.999999 0.000978 1.000000
0.166866 0.007318 0.134449 0.000978 0.999999 0.000978 1.000000
0.166866 0.007318 0.744846 0.000978 0.999999 0.000978 1.000000
0.166866 0.007318 0.931806 0.000978 0.999999 0.000978 1.000000
0.166866 0.007318 0.300617 0.000978 0.999999 0.000978 1.000000
0.166866 0.007318 0.896035 0.000978 0.999999 0.000978 1.000000
0.166866 0.007318 0.552247 0.000978 0.999999 0.000978 1.000000
0.166866 0.007318 0.943260 0.000978 0.999999 0.000978 1.000000
0.154904 0.009040 0.540617 0.000978 0.999999 0.000978 1.000000
0.133573 0.603099 0.718590 -0.241687 0.891128 0.384030 1.000000
0.133573 0.603099 0.044758 -0.099258 0.371197 0.923234 1.000000
0.039872 0.405941 0.463612 0.618633 -0.668389 -0.412975 1.000000
0.384968 0.053379 0.815507 0.000978 0.999999 0.000978 1.000000
0.384968 0.053379 0.823965 0.000978 -0.999999 0.000978 1.000000
0.450359 0.489884 0.166872 0.673191 -0.064869 0.736618 1.000000
0.510367 0.430478 0.863612 0.753136 0.534220 -0.383920 1.000000
0.510367 0.430478 0.857621 0.404497 -0.417287 0.813790 1.000000
0.510367 0.430478 0.741498 -0.378590 0.794233 0.475251 1.000000
0.019537 0.380112 0.440352 -0.541136 0.464544 0.700979 1.000000
0.019537 0.380112 0.387313 0.949715 -0.312390 -0.021328 1.000000
0.510965 0.603530 0.394714 -0.485444 0.609745 0.626542 1.000000
0.001396 0.019372 0.992423 0.001273 -0.925729 0.378186 1.000000
0.001396 0.019372 0.554009 0.001248 -0.335625 0.941995 1.000000
0.212121 0.163151 0.160352 0.872663 -0.014791 0.488099 1.000000
0.511164 0.585019 0.961938 0.036453 0.998814 -0.032287 1.000000
0.511164 0.585019 0.478062 0.469435 0.185108 -0.863346 1.000000
0.160088 0.603960 0.416211 -0.425646 -0.899819 0.095666 1.000000
0.160088 0.603960 0.735330 -0.138927 0.990272 0.007780 1.000000
0.160088 0.603960 0.721762 -0.159251 0.967160 0.198093 1.000000
0.160088 0.603960 0.508370 0.824340 -0.498330 0.268570 1.000000
0.511364 0.112355 0.958767 0.001314 -0.889912 0.456129 1.000000
0.194179 0.024537 0.367048 0.000978 0.999999 0.000978 1.000000
0.194179 0.024537 0.443877 0.000978 0.999999 0.000978 1.000000
0.194179 0.024537 0.847753 0.000978 0.999999 0.000978 1.000000
0.001794 0.002583 0.756123 0.019270 -0.363557 0.931373 1.000000
0.511563 0.359019 0.461145 -0.504209 0.377752 0.776580 1.000000
0.511762 0.200172 0.453040 -0.023809 -0.645634 0.763276 1.000000
0.511762 0.200172 0.961586 0.823725 -0.566909 0.009562 1.000000
0.511762 0.200172 0.943084 -0.265966 0.683229 0.680044 1.000000
0.511762 0.200172 0.949075 0.000978 0.999999 0.000978 1.000000
0.102671 0.095136 0.428194 0.001184 -0.242814 0.970072 1.000000
0.511962 0.071459 0.352775 0.000978 0.999999 0.000978 1.000000
0.511962 0.071459 0.962819 0.007983 0.984219 0.176772 1.000000
0.512161 0.028842 0.228899 0.006475 0.912990 0.407932 1.000000
0.307815 0.605252 0.922819 0.055182 0.163196 0.985049 1.000000
0.307815 0.605252 0.826079 -0.033855 -0.297176 0.954222 1.000000
0.087719 0.170900 0.934273 0.001330 0.490829 0.871255 1.000000
0.350678 0.009040 0.540617 0.000978 0.999999 0.000978 1.000000
0.390152 0.495910 0.656916 0.836233 -0.547877 0.023343 1.000000
0.390152 0.495910 0.338150 0.403908 0.388069 0.828408 1.000000
0.035088 0.168317 0.891630 -0.076680 0.921509 0.380711 1.000000
0.035088 0.168317 0.882467 0.867479 -0.491898 -0.074275 1.000000
0.035088 0.168317 0.954537 0.946037 0.311837 0.088156 1.000000
0.035088 0.168317 0.264493 0.996882 0.068043 0.039962 1.000000
0.035088 0.168317 0.262379 0.996882 0.068043 0.039962 1.000000
0.039274 0.015067 0.926520 -0.205650 -0.746835 0.632413 1.000000
0.039274 0.015067 0.394537 0.000978 0.999999 0.000978 1.000000
0.124801 0.089109 0.153128 0.000978 0.999999 0.000978 1.000000
0.124801 0.089109 0.889692 0.001203 0.268202 0.963362 1.000000
0.512759 0.112355 0.958767 0.001314 -0.889912 0.456129 1.000000
0.513158 0.245803 0.364053 -0.519156 -0.660286 0.542678 1.000000
0.513158 0.245803 0.142203 0.057359 -0.102346 0.993094 1.000000
0.150120 0.606543 0.343260 0.086377 0.338865 0.936862 1.000000
0.190191 0.405510 0.970044 0.332624 -0.001246 -0.943059 1.000000
0.190191 0.405510 0.155419 -0.366354 0.196825 0.909420 1.000000
0.513756 0.073181 0.881057 0.116990 0.991572 0.055655 1.000000
0.513756 0.073181 0.542379 0.838040 0.001354 -0.545606 1.000000
0.513756 0.073181 0.245991 -0.055297 -0.798265 0.599762 1.000000
0.019936 0.112355 0.958767 0.000978 0.999999 0.000978 1.000000
0.184011 0.024968 0.746256 0.001145 -0.191268 0.981537 1.000000
0.184011 0.024968 0.369163 0.001055 -0.996523 0.083307 1.000000
0.513955 0.607404 0.568282 -0.700405 0.418918 -0.577876 1.000000
0.514155 0.340077 0.767930 -0.286640 0.686975 0.667759 1.000000
0.083333 0.123117 0.869956 0.001141 -0.186011 0.982547 1.000000
0.514354 0.007318 0.134449 0.000978 0.999999 0.000978 1.000000
0.514354 0.007318 0.744846 0.000978 0.999999 0.000978 1.000000
0.514354 0.007318 0.931806 0.000978 0.999999 0.000978 1.000000
0.514354 0.007318 0.300617 0.000978 0.999999 0.000978 1.000000
0.514354 0.007318 0.896035 0.000978 0.999999 0.000978 1.000000
