0.050439 0.009040 0.303436 0.942885 -0.145164 0.299824 0.000000
0.293262 0.363754 0.926344 0.410229 0.884140 -0.223627 0.000000
0.079346 0.833836 0.459912 0.909183 -0.413752 -0.046865 0.000000
0.398325 0.077056 0.346960 0.842530 0.407978 0.351705 0.000000
0.922847 0.547568 0.590132 -0.498097 -0.031387 -0.866553 0.000000
0.128389 0.730090 0.841410 0.021928 -0.984454 0.174270 0.000000
0.054426 0.500215 0.991366 0.667816 0.377605 0.641433 0.000000
0.063596 0.038313 0.850749 0.346871 -0.048068 0.936680 0.000000
0.041467 0.003444 0.741498 -0.023646 0.989763 0.140751 0.000000
0.166667 0.579854 0.049692 -0.495403 -0.420193 0.760272 0.000000
0.739434 0.168317 0.923524 0.072840 -0.993983 0.081805 0.000000
0.758174 0.422729 0.826079 -0.321942 0.536570 0.780029 0.000000
0.092105 0.007318 0.257445 -0.166642 -0.967559 -0.189895 0.000000
0.102472 0.157555 0.997181 0.050433 0.329757 0.942718 0.000000
0.132974 0.563065 0.367048 0.910353 0.318988 -0.263638 0.000000
0.316986 0.139044 0.198414 0.688142 0.709315 0.152752 0.000000
0.228868 0.866552 0.682291 0.756676 0.649613 -0.073787 0.000000
0.164274 0.260870 0.744846 0.266067 0.224276 0.937501 0.000000
0.039075 0.144641 0.554009 0.693319 0.648068 -0.315145 0.000000
0.727073 0.231167 0.483700 0.906517 0.182453 0.380708 0.000000
0.163278 0.915196 0.874361 0.745738 0.661425 -0.079952 0.000000
0.065391 0.456737 0.336916 -0.595386 0.803429 -0.004106 0.000000
0.686204 0.717176 0.598062 -0.354481 0.830273 0.430104 0.000000
0.916467 0.068446 0.432952 -0.237218 0.950228 0.201974 0.000000
0.030901 0.139044 0.997709 0.124929 -0.034890 0.991552 0.000000
0.102273 0.021524 0.576211 -0.384272 0.898582 -0.211861 0.000000
0.028110 0.003444 0.868546 -0.191053 -0.781025 0.594557 0.000000
0.664274 0.809729 0.744846 0.389850 -0.085577 -0.916894 0.000000
0.207735 0.966853 0.744846 0.830838 0.549587 0.087532 0.000000
0.483852 0.995265 0.264493 0.707840 -0.704992 0.044151 0.000000
0.575957 0.023246 0.913304 0.409696 -0.501102 -0.762263 0.000000
0.004585 0.508825 0.544317 0.023843 0.660598 0.750361 0.000000
0.065590 0.073181 0.327225 0.713696 -0.035331 0.699564 0.000000
0.034490 0.950926 0.682996 -0.364396 0.203083 -0.908830 0.000000
0.948166 0.636677 0.404934 0.071991 0.198891 0.977374 0.000000
0.594498 0.213947 0.069956 0.754889 0.139572 0.640830 0.000000
0.064593 0.007318 0.100441 0.000978 0.999999 0.000978 0.000000
0.436005 0.683599 0.169692 -0.174890 0.365422 -0.914265 0.000000
0.606659 0.473095 0.443877 0.235983 -0.955933 0.174654 0.000000
0.274522 0.019372 0.402996 0.441970 -0.160848 -0.882491 0.000000
0.215510 0.077056 0.321057 0.932048 -0.325455 0.159265 0.000000
0.231858 0.007318 0.042291 -0.146458 -0.874399 -0.462576 0.000000
0.082137 0.201033 0.657445 -0.625996 -0.286581 -0.725259 0.000000
0.403309 0.492897 0.758767 -0.500206 0.234042 0.833677 0.000000
0.263955 0.229875 0.552247 0.996352 -0.026987 0.080960 0.000000
0.238636 0.053379 0.936564 0.806330 -0.281351 0.520263 0.000000
0.324362 0.007318 0.891454 -0.543070 0.829974 0.127351 0.000000
0.981061 0.119673 0.764053 0.871573 -0.479152 -0.103793 0.000000
0.581140 0.056393 0.849339 0.781665 -0.110405 -0.613850 0.000000
0.079346 0.721050 0.757004 0.979289 -0.184150 0.084148 0.000000
0.639952 0.071459 0.285639 0.876131 0.235132 0.420842 0.000000
0.882376 0.510547 0.264493 -0.082154 -0.586612 0.805690 0.000000
0.112440 0.473956 0.169692 -0.495510 -0.369615 -0.786037 0.000000
0.350678 0.007318 0.742379 -0.116298 -0.980579 0.157921 0.000000
0.833533 0.510116 0.202291 -0.470089 0.208762 0.857575 0.000000
0.301635 0.012484 0.711189 0.277003 0.960194 -0.036023 0.000000
0.056419 0.840723 0.552247 0.958368 0.173646 0.226668 0.000000
0.358254 0.786483 0.585374 0.918509 0.204272 0.338548 0.000000
0.113238 0.033147 0.963348 0.735627 0.586228 0.339395 0.000000
0.177831 0.767972 0.817269 -0.607773 -0.463782 -0.644607 0.000000
0.197967 0.901851 0.134449 0.265117 -0.947624 0.178104 0.000000
0.234649 0.007318 0.403700 0.672312 0.718256 -0.179181 0.000000
0.112839 0.024107 0.584493 -0.260079 0.518602 0.814500 0.000000
0.158293 0.622040 0.011806 -0.645701 0.223572 -0.730127 0.000000
0.177432 0.009040 0.129339 0.284397 -0.894881 0.343956 0.000000
0.298046 0.024537 0.536388 0.384860 0.921813 0.046289 0.000000
0.424442 0.256995 0.951718 0.126169 -0.919229 -0.372960 0.000000
0.725877 0.679724 0.951894 -0.048945 0.543991 0.837662 0.000000
0.288876 0.024107 0.951718 -0.794536 0.046571 0.605428 0.000000
0.114035 0.033147 0.087577 0.358612 0.826231 -0.434442 0.000000
0.134171 0.141627 0.889692 0.367570 0.886669 0.280553 0.000000
0.620016 0.009040 0.117533 0.931294 0.364086 -0.011497 0.000000
0.476276 0.007318 0.038062 0.145732 0.977777 0.150715 0.000000
0.852273 0.041756 0.358767 -0.385937 0.389087 0.836459 0.000000
0.166467 0.183814 0.943436 0.288949 0.488870 0.823113 0.000000
0.029107 0.250108 0.983965 0.312390 0.949715 0.021328 0.000000
0.281699 0.489884 0.552247 0.160560 0.969784 0.183681 0.000000
0.096691 0.657770 0.443877 0.610710 0.769892 0.185203 0.000000
0.481858 0.034008 0.146079 -0.298004 -0.919926 0.254815 0.000000
0.471890 0.221696 0.430132 0.505820 -0.462701 -0.728049 0.000000
0.002392 0.231167 0.445110 0.831701 0.549237 0.081316 0.000000
0.363238 0.041326 0.303612 0.252234 -0.238299 0.937865 0.000000
0.751196 0.437365 0.744846 -0.137633 0.818396 0.557930 0.000000
0.941986 0.724925 0.003172 0.886971 0.257892 0.383112 0.000000
0.406699 0.105898 0.614626 0.444317 0.554149 0.703919 0.000000
0.061404 0.007318 0.107665 -0.417588 0.881244 -0.221426 0.000000
0.729864 0.003444 0.294802 -0.080902 0.972071 0.220303 0.000000
0.201754 0.007318 0.364229 0.080902 0.844500 0.529409 0.000000
0.047847 0.487731 0.540617 0.677880 0.487070 -0.550673 0.000000
0.100478 0.007318 0.996652 -0.185073 0.149334 0.971312 0.000000
0.930423 0.611279 0.919471 -0.068883 -0.996065 0.055762 0.000000
0.023325 0.379681 0.300617 0.206655 0.843212 -0.496273 0.000000
0.170455 0.108050 0.120881 0.396431 0.765128 0.507367 0.000000
0.514952 0.885923 0.636652 0.930379 0.364061 0.043061 0.000000
0.009370 0.007318 0.083700 0.398555 0.597006 0.696231 0.000000
0.506778 0.303917 0.392952 0.904841 -0.003906 0.425731 0.000000
0.118022 0.219113 0.635066 0.192487 0.749928 0.632896 0.000000
0.355861 0.003444 0.852511 0.197558 -0.098158 0.975365 0.000000
0.003190 0.498924 0.753304 -0.562254 0.112451 0.819284 0.000000
0.034490 0.885923 0.514714 0.886308 -0.436669 -0.154203 0.000000
0.127193 0.906156 0.300617 -0.819114 0.561217 0.118691 0.000000
0.269936 0.349978 0.466256 0.196944 -0.077065 0.977381 0.000000
0.544458 0.510116 0.899207 -0.398504 0.860091 -0.318495 0.000000
0.331539 0.140336 0.126520 0.914337 -0.379457 0.141421 0.000000
0.346691 0.011192 0.459912 -0.395439 0.112388 0.911590 0.000000
0.121810 0.459320 0.235419 0.332894 0.767104 0.548391 0.000000
0.085526 0.024107 0.419912 -0.100317 0.061993 0.993022 0.000000
0.551435 0.238485 0.941322 0.116304 0.605075 0.787628 0.000000
0.200558 0.637968 0.991366 0.296093 0.796442 0.527267 0.000000
0.914872 0.292294 0.345903 0.817758 -0.575560 -0.001361 0.000000
0.014553 0.053810 0.110837 -0.657351 0.344171 -0.670400 0.000000
0.295654 0.633233 0.552247 0.213731 0.405351 -0.888825 0.000000
0.323764 0.074042 0.050749 0.773824 -0.280096 0.568104 0.000000
0.062600 0.007318 0.956300 0.985329 0.150949 -0.079635 0.000000
0.397727 0.007318 0.732511 -0.760471 -0.012512 -0.649251 0.000000
0.153708 0.309083 0.552247 0.660470 0.459821 -0.593587 0.000000
0.073365 0.003444 0.609515 -0.097022 -0.958582 0.267782 0.000000
0.324362 0.007318 0.786784 0.198507 0.966588 0.162179 0.000000
0.073963 0.007318 0.614273 -0.097022 -0.958582 0.267782 0.000000
0.173046 0.031855 0.925110 0.674351 -0.717166 -0.175851 0.000000
0.922448 0.377529 0.567225 0.102045 0.109083 0.988781 0.000000
0.084530 0.319845 0.931806 0.323035 -0.942735 0.083066 0.000000
0.202751 0.127852 0.931806 0.691335 0.688214 -0.220041 0.000000
0.142743 0.598364 0.352775 -0.612460 -0.582090 -0.534848 0.000000
0.428030 0.883771 0.744846 -0.385218 0.772062 -0.505497 0.000000
0.196172 0.690056 0.817269 -0.033220 -0.418574 0.907575 0.000000
0.417065 0.073612 0.721762 -0.427989 0.759230 0.490302 0.000000
0.050638 0.541541 0.759648 0.119605 0.367065 -0.922474 0.000000
0.050638 0.335342 0.540617 -0.092411 0.954049 0.285043 0.000000
0.628987 0.398192 0.997181 0.787400 0.612423 -0.070278 0.000000
0.312400 0.191563 0.464493 -0.077702 -0.161381 0.983828 0.000000
0.163278 0.222988 0.241586 -0.504668 0.541554 -0.672332 0.000000
0.166467 0.118381 0.943436 0.819206 0.500886 0.279310 0.000000
0.461523 0.007318 0.989780 0.037600 0.823012 0.566778 0.000000
0.286882 0.216100 0.552247 -0.179112 0.638374 -0.748597 0.000000
0.039075 0.600086 0.611278 -0.093255 -0.093255 0.991265 0.000000
0.948166 0.571244 0.370220 0.623768 0.643835 -0.443159 0.000000
0.054027 0.151528 0.438590 -0.558424 0.811295 0.173096 0.000000
0.733254 0.024107 0.399471 0.475516 0.878819 -0.039513 0.000000
0.691587 0.979337 0.741498 0.203212 0.665479 0.718221 0.000000
0.142743 0.298321 0.576211 0.897552 -0.438653 0.044540 0.000000
0.198166 0.947051 0.657445 0.533151 0.792607 0.295843 0.000000
0.039075 0.088678 0.061322 0.422752 0.879622 0.218051 0.000000
0.903110 0.240207 0.364053 -0.540679 0.237031 0.807145 0.000000
0.163278 0.513130 0.092687 -0.331639 0.896763 -0.292972 0.000000
0.015351 0.698666 0.931806 0.693810 0.476472 0.540002 0.000000
0.189394 0.397762 0.428194 0.128807 -0.792090 0.596659 0.000000
0.520933 0.068446 0.501850 -0.033193 -0.152231 0.987787 0.000000
0.483652 0.112785 0.827313 -0.294229 -0.057317 0.954015 0.000000
0.470494 0.764529 0.049692 0.966978 -0.205273 0.151050 0.000000
0.077951 0.103745 0.994185 0.489862 -0.836911 -0.244163 0.000000
0.097289 0.024107 0.980793 -0.296815 0.630531 -0.717169 0.000000
0.015949 0.275075 0.139031 0.157410 0.033320 0.986971 0.000000
0.411683 0.053379 0.906784 0.955212 0.092022 -0.281250 0.000000
0.575359 0.007318 0.841057 -0.436933 -0.872374 -0.219212 0.000000
0.281699 0.552303 0.443877 0.717604 -0.613932 0.328834 0.000000
0.009171 0.024107 0.876652 0.386214 -0.783741 -0.486404 0.000000
0.031499 0.943177 0.907313 0.415679 0.883133 -0.217455 0.000000
0.715909 0.459320 0.494097 0.733032 0.555924 -0.391934 0.000000
0.042065 0.007318 0.371630 0.978227 -0.112539 -0.174374 0.000000
0.730662 0.148084 0.637181 0.770896 0.578566 0.266424 0.000000
0.085526 0.024107 0.180441 0.968889 0.243753 -0.042871 0.000000
0.986045 0.894102 0.536211 0.978780 0.196238 -0.058992 0.000000
0.045255 0.631941 0.896388 0.767167 0.509816 -0.389284 0.000000
0.113437 0.571244 0.133216 -0.066649 0.017985 0.997614 0.000000
0.030303 0.061989 0.202291 -0.674631 -0.206267 -0.708750 0.000000
0.202751 0.365045 0.913304 0.941309 -0.203190 -0.269538 0.000000
0.073565 0.303917 0.684229 0.730504 0.079876 -0.678221 0.000000
0.276715 0.009901 0.367048 -0.605423 -0.750850 0.263983 0.000000
0.035088 0.222988 0.115419 -0.731106 0.560241 -0.389376 0.000000
0.631180 0.712441 0.996652 -0.224508 0.943484 -0.243791 0.000000
0.152313 0.048214 0.494097 -0.558897 0.732630 0.388442 0.000000
0.970494 0.117520 0.983789 -0.042204 -0.215843 0.975515 0.000000
0.035088 0.000000 0.251630 -0.548491 0.812861 -0.195998 0.000000
0.324163 0.859664 0.148899 -0.228109 -0.267293 0.936227 0.000000
0.987640 0.225140 0.294802 0.033518 -0.279318 0.959613 0.000000
0.731858 0.129143 0.662907 0.586295 0.692593 0.420206 0.000000
0.122608 0.003444 0.852687 0.370345 0.246405 0.895616 0.000000
0.137959 0.048214 0.926520 -0.209742 -0.688264 0.694479 0.000000
0.011962 0.580715 0.202291 -0.441111 0.392990 0.806833 0.000000
0.363238 0.303917 0.245991 0.923627 -0.295504 -0.244112 0.000000
0.029107 0.024107 0.070132 -0.593851 -0.424179 0.683677 0.000000
0.023325 0.024537 0.343084 0.988523 0.141877 -0.051906 0.000000
0.386962 0.082652 0.404053 0.734452 0.443972 0.513291 0.000000
0.079545 0.078777 0.931806 0.312526 -0.899068 -0.306601 0.000000
0.343501 0.124839 0.497093 0.958944 -0.282623 -0.023449 0.000000
0.254585 0.189841 0.699912 -0.541061 0.012266 0.840894 0.000000
0.840909 0.112355 0.874361 0.797773 0.572017 -0.190672 0.000000
0.080144 0.140336 0.645286 -0.693395 -0.046986 0.719024 0.000000
0.441587 0.077486 0.983965 -0.612149 -0.742529 -0.271890 0.000000
0.166467 0.020663 0.466256 -0.085996 0.730235 -0.677763 0.000000
0.122608 0.723633 0.906784 0.125121 0.575556 0.808134 0.000000
0.010766 0.024537 0.930749 0.766010 0.432820 0.475285 0.000000
0.190590 0.167456 0.367048 -0.124026 -0.048928 0.991072 0.000000
0.127592 0.007318 0.924229 0.073554 -0.995718 0.055989 0.000000
0.754386 0.168317 0.915947 0.209818 0.970249 0.120804 0.000000
0.116228 0.033147 0.028722 -0.066890 -0.146688 0.986919 0.000000
0.212321 0.088678 0.995771 0.423034 -0.885591 -0.191756 0.000000
0.535088 0.003444 0.130220 0.742846 0.648661 0.165583 0.000000
0.303828 0.677572 0.997181 0.073867 0.058432 0.995555 0.000000
0.197368 0.538528 0.134449 0.890345 0.235549 -0.389618 0.000000
0.003987 0.095136 0.791189 -0.350734 0.935723 0.037532 0.000000
0.731061 0.038313 0.732159 0.622539 0.773368 -0.119776 0.000000
0.309211 0.655187 0.950661 0.136101 0.644613 0.752297 0.000000
0.151914 0.530779 0.356476 -0.513277 -0.546934 0.661370 0.000000
0.587520 0.283685 0.186256 0.301599 -0.679001 -0.669324 0.000000
0.150917 0.007318 0.794890 0.780481 0.577961 -0.238350 0.000000
0.498006 0.071459 0.214626 0.810770 0.361581 -0.460339 0.000000
0.106061 0.167025 0.311013 -0.440829 -0.044487 0.896488 0.000000
0.147727 0.003444 0.488634 -0.354917 0.931823 -0.075769 0.000000
0.923046 0.307361 0.404934 0.576815 0.607262 0.546367 0.000000
0.113836 0.154542 0.896035 -0.522877 0.108033 -0.845534 0.000000
0.051834 0.007318 0.445286 0.589188 0.541918 -0.599318 0.000000
0.653110 0.168747 0.238590 -0.110040 0.349140 0.930587 0.000000
0.720295 0.007318 0.569339 -0.005173 -0.998366 0.056902 0.000000
0.312002 0.073612 0.153128 0.764191 -0.009708 -0.644917 0.000000
0.245016 0.597503 0.815507 0.332102 0.026721 0.942865 0.000000
0.463517 0.048214 0.732863 -0.121289 0.072773 0.989946 0.000000
0.197169 0.879036 0.134449 0.299554 -0.178076 0.937313 0.000000
0.251396 0.077056 0.089868 0.394999 -0.088841 0.914376 0.000000
0.338517 0.581145 0.961938 -0.661148 0.720263 -0.210012 0.000000
0.255981 0.779165 0.680881 0.719439 -0.431663 -0.544127 0.000000
0.371611 0.326733 0.933568 0.304170 0.613169 0.729043 0.000000
0.017743 0.003444 0.371630 -0.061939 0.466610 0.882292 0.000000
0.303628 0.894102 0.926344 0.920873 -0.046242 0.387110 0.000000
0.011364 0.103745 0.306432 0.146537 -0.705490 0.693405 0.000000
0.034490 0.834697 0.369868 0.176188 -0.128705 0.975906 0.000000
0.944378 0.889367 0.206167 0.737376 -0.212675 0.641129 0.000000
0.064195 0.091692 0.249339 -0.598704 0.504260 0.622315 0.000000
0.422249 0.229875 0.459912 0.041767 -0.953037 0.299960 0.000000
0.210726 0.413259 0.744846 -0.180569 0.980403 -0.078772 0.000000
0.132974 0.247525 0.008987 0.116959 0.077587 0.990101 0.000000
0.333333 0.163151 0.332159 0.976765 0.092380 0.193382 0.000000
0.193581 0.193715 0.430132 0.059048 0.041870 0.997377 0.000000
0.326954 0.767972 0.653921 0.570882 0.396492 -0.718949 0.000000
0.056619 0.094275 0.712952 0.982255 -0.088198 -0.165521 0.000000
0.091308 0.510547 0.832599 0.825795 -0.251597 -0.504738 0.000000
0.228270 0.859234 0.926520 -0.016829 -0.384469 0.922984 0.000000
0.390152 0.330607 0.843877 -0.513995 0.415465 -0.750465 0.000000
0.508373 0.129143 0.395947 0.096609 0.264066 0.959654 0.000000
0.404107 0.523892 0.552247 0.174182 -0.153840 0.972622 0.000000
0.038876 0.219974 0.876652 0.907846 -0.041326 -0.417262 0.000000
0.175837 0.559621 0.434537 0.951277 0.190797 0.242217 0.000000
0.020734 0.089970 0.710308 0.480842 0.874385 0.065129 0.000000
0.130981 0.360740 0.499383 0.441338 -0.222913 0.869212 0.000000
0.022727 0.473526 0.215154 0.918562 0.390221 0.063025 0.000000
0.087919 0.164443 0.744846 0.106075 0.096749 0.989640 0.000000
0.570774 0.009471 0.210396 0.739701 0.629766 0.237144 0.000000
0.274322 0.374085 0.227489 0.425216 -0.137946 0.894518 0.000000
0.753190 0.107619 0.645463 -0.192777 0.437058 0.878531 0.000000
0.012161 0.091692 0.300617 -0.460970 -0.287136 0.839679 0.000000
0.530702 0.158846 0.899559 0.106478 0.812445 -0.573233 0.000000
0.108453 0.210073 0.244581 -0.673271 0.727252 -0.133455 0.000000
0.524322 0.966423 0.247048 0.005849 -0.976799 0.214077 0.000000
0.240630 0.007318 0.473656 0.176002 0.888740 0.423279 0.000000
0.772329 0.665519 0.616740 0.579955 0.708833 -0.401507 0.000000
0.098285 0.123117 0.280529 0.775343 -0.540974 0.325869 0.000000
0.419258 0.668102 0.326167 0.949339 -0.171502 0.263330 0.000000
0.522528 0.719328 0.917181 0.480231 -0.784216 -0.392916 0.000000
0.000000 0.007318 0.462203 0.955621 -0.158163 -0.248541 0.000000
0.113437 0.857942 0.917885 0.902755 0.022470 0.429568 0.000000
0.963716 0.616875 0.202291 -0.385389 0.826286 -0.410764 0.000000
0.345893 0.024107 0.126520 0.085510 0.607267 -0.789882 0.000000
0.919458 0.124839 0.025727 0.915227 0.109054 -0.387901 0.000000
0.167663 0.603960 0.958767 0.580085 0.764441 -0.281302 0.000000
0.007576 0.112355 0.174978 0.942569 -0.273827 0.191266 0.000000
0.884370 0.692639 0.656916 0.825001 -0.009577 -0.565050 0.000000
0.781499 0.544985 0.467313 -0.287502 0.428947 0.856357 0.000000
0.286882 0.020663 0.906608 -0.054524 -0.921586 0.384327 0.000000
0.791467 0.103745 0.099736 0.630856 -0.775689 0.018104 0.000000
0.290869 0.139475 0.148899 0.248425 0.035489 0.968001 0.000000
0.163278 0.590185 0.418502 0.805243 0.590887 -0.049358 0.000000
0.170654 0.196298 0.906784 0.472230 0.769621 0.429746 0.000000
0.073963 0.024107 0.409868 -0.580861 -0.248940 0.775003 0.000000
0.158293 0.631941 0.959471 0.580085 0.764441 -0.281302 0.000000
0.188198 0.412828 0.485110 -0.284524 0.957266 0.051847 0.000000
0.429625 0.053379 0.289515 0.233955 0.314333 0.920033 0.000000
0.031499 0.020663 0.758062 -0.188417 -0.889504 0.416270 0.000000
0.064593 0.007318 0.711189 0.000978 -0.999999 0.000978 0.000000
0.092305 0.012484 0.099383 0.296595 0.953433 -0.054736 0.000000
0.546053 0.522170 0.483700 0.023186 0.852411 0.522358 0.000000
0.049043 0.023676 0.306079 0.908426 -0.172558 -0.380769 0.000000
0.113437 0.022815 0.355066 -0.013062 0.999769 -0.017081 0.000000
0.062400 0.077056 0.453040 0.212967 -0.874206 0.436358 0.000000
0.797847 0.884632 0.306079 0.840192 -0.417749 -0.345778 0.000000
0.751196 0.522170 0.744846 -0.070437 0.786307 0.613808 0.000000
0.152711 0.219113 0.433656 -0.247713 -0.705273 0.664250 0.000000
0.307616 0.325441 0.974097 0.887294 0.380269 -0.260969 0.000000
0.374203 0.492467 0.047401 0.460892 -0.255711 0.849818 0.000000
0.012560 0.073612 0.387313 0.113845 -0.652022 0.749604 0.000000
0.499801 0.236332 0.410573 0.931534 0.238168 0.274810 0.000000
0.286882 0.167886 0.573744 0.963541 -0.247621 0.101358 0.000000
0.692982 0.236332 0.679119 -0.962429 0.072087 -0.261791 0.000000
0.535486 0.363754 0.941322 0.442892 0.345172 -0.827468 0.000000
0.007775 0.003444 0.350837 -0.156286 0.985892 0.059929 0.000000
0.107057 0.945760 0.468546 0.562168 -0.825728 0.046263 0.000000
0.385367 0.854498 0.552247 -0.028173 -0.134104 0.990567 0.000000
0.766746 0.068876 0.653744 0.562949 -0.765033 -0.312750 0.000000
0.303828 0.024107 0.838767 0.240832 0.684719 -0.687867 0.000000
0.041467 0.007318 0.886167 0.000978 0.999999 0.000978 0.000000
0.605064 0.292294 0.990485 -0.199186 -0.188634 0.961635 0.000000
0.252592 0.024537 0.353656 -0.319093 -0.764860 0.559615 0.000000
0.351077 0.055962 0.169692 0.383825 -0.490714 0.782227 0.000000
0.762560 0.346965 0.105903 0.899323 0.437189 -0.009190 0.000000
0.545056 0.027981 0.061850 -0.332967 -0.456054 0.825316 0.000000
0.657695 0.530349 0.148899 0.445285 -0.595381 0.668762 0.000000
0.241826 0.687043 0.224493 0.292209 0.440633 -0.848797 0.000000
0.154506 0.345674 0.926344 0.865631 -0.336720 -0.370545 0.000000
0.379386 0.103745 0.527930 -0.418167 0.712371 0.563616 0.000000
0.330542 0.755489 0.453040 -0.217582 0.941008 -0.259158 0.000000
0.101675 0.598364 0.983965 0.228101 -0.127582 0.965242 0.000000
0.822169 0.629789 0.300617 0.723428 -0.524775 0.448624 0.000000
0.025518 0.038313 0.459912 -0.465140 0.881392 0.082412 0.000000
0.088317 0.007318 0.983965 0.632657 0.744577 0.212958 0.000000
0.101475 0.700387 0.552247 -0.307464 -0.255498 0.916617 0.000000
0.908892 0.156263 0.325110 0.958151 -0.227245 -0.174088 0.000000
0.031699 0.515282 0.264141 -0.401052 -0.701428 -0.589200 0.000000
0.075159 0.799397 0.134449 0.579694 0.532372 0.616875 0.000000
0.422448 0.533793 0.962467 0.517957 -0.837389 -0.174643 0.000000
0.897727 0.103745 0.721586 0.663940 -0.463253 0.587010 0.000000
0.200558 0.229875 0.024846 -0.319231 -0.911049 0.260924 0.000000
0.747010 0.424021 0.684229 0.130011 -0.650054 0.748683 0.000000
0.182018 0.538097 0.608458 0.395027 0.642952 -0.656175 0.000000
0.280303 0.292294 0.979031 0.878531 0.437058 -0.192777 0.000000
0.606858 0.031855 0.433656 -0.637432 0.769703 -0.035178 0.000000
0.056419 0.151528 0.295507 0.534175 0.310938 0.786114 0.000000
0.433014 0.650022 0.681233 0.009708 0.644917 0.764191 0.000000
0.049043 0.306500 0.134449 -0.172382 0.636136 -0.752074 0.000000
0.263955 0.007318 0.420617 0.308263 -0.924788 -0.223029 0.000000
0.294856 0.369780 0.991366 -0.335551 0.481857 0.809456 0.000000
0.658094 0.027981 0.804053 0.025829 0.999085 -0.034095 0.000000
0.023923 0.024107 0.566520 0.952057 0.305797 0.008666 0.000000
0.568780 0.007318 0.925463 -0.241718 0.952019 -0.187703 0.000000
0.112440 0.006457 0.049692 -0.070737 0.953023 0.294524 0.000000
0.443581 0.866552 0.367048 0.410517 -0.210408 0.887245 0.000000
0.419657 0.939303 0.930749 -0.411974 -0.486878 0.770212 0.000000
0.784689 0.109772 0.990661 -0.695487 0.689291 0.202915 0.000000
0.754585 0.139905 0.608458 0.488243 -0.397407 -0.776972 0.000000
0.027711 0.028842 0.831366 0.001221 -0.955752 0.294171 0.000000
0.448365 0.321136 0.141498 0.985294 0.057544 -0.160888 0.000000
0.142145 0.007318 0.849692 0.067682 0.984356 -0.162674 0.000000
0.274322 0.279811 0.817269 0.094190 -0.383584 0.918690 0.000000
0.082536 0.579423 0.585727 0.924306 0.137191 -0.356142 0.000000
0.100877 0.807576 0.552247 -0.242461 0.580343 0.777441 0.000000
0.575359 0.761515 0.300617 0.968046 -0.204408 -0.145271 0.000000
0.080542 0.024107 0.109956 0.044434 -0.133302 0.990079 0.000000
0.132974 0.948343 0.931806 0.511181 0.585412 -0.629275 0.000000
0.342305 0.188980 0.134449 0.781131 0.598411 -0.178153 0.000000
0.223485 0.357297 0.443877 0.665175 0.413039 0.622046 0.000000
0.408892 0.789066 0.913304 0.566455 0.650499 -0.505944 0.000000
0.983254 0.236332 0.728634 0.847553 0.508532 0.151822 0.000000
0.843700 0.697805 0.931806 0.984726 -0.111819 -0.133461 0.000000
0.534490 0.007318 0.309604 0.868154 -0.496279 -0.004013 0.000000
0.003788 0.527766 0.134449 -0.836525 0.520405 0.171480 0.000000
0.052033 0.372794 0.552247 -0.166063 -0.333522 0.928001 0.000000
0.570175 0.256134 0.930749 0.034352 0.197822 0.979636 0.000000
0.514952 0.969436 0.041233 -0.351250 -0.638784 -0.684528 0.000000
0.739833 0.764098 0.430132 0.899265 -0.352913 0.258409 0.000000
0.167464 0.555316 0.847753 0.839784 0.296486 0.454818 0.000000
0.793262 0.339647 0.890220 0.460308 0.789792 -0.405394 0.000000
0.244219 0.007318 0.537974 0.761544 -0.315840 0.565947 0.000000
0.065590 0.829100 0.303612 0.767178 0.287493 0.573398 0.000000
0.007775 0.414120 0.744846 -0.233140 -0.261060 0.936746 0.000000
0.508573 0.618166 0.721586 0.756927 0.584826 0.291616 0.000000
0.082137 0.471373 0.941145 0.269496 -0.687294 0.674536 0.000000
0.253589 0.266466 0.943260 -0.924320 0.082072 0.372688 0.000000
0.067584 0.027981 0.574097 0.258422 0.916747 -0.304620 0.000000
0.725877 0.279811 0.852687 0.392587 0.918680 -0.043621 0.000000
0.077951 0.975463 0.943260 0.253665 -0.223170 0.941195 0.000000
0.464314 0.077056 0.070132 0.246801 0.805595 0.538615 0.000000
0.045455 0.011192 0.918590 0.074965 0.415717 0.906399 0.000000
0.100877 0.987947 0.906784 0.948126 -0.316042 -0.034270 0.000000
0.281699 0.024537 0.644758 0.074474 0.858564 0.507269 0.000000
0.235447 0.007318 0.990837 0.899828 -0.199154 0.388133 0.000000
0.269139 0.020663 0.573216 0.136148 -0.990673 -0.005534 0.000000
0.045056 0.024107 0.895154 -0.138365 0.218539 0.965969 0.000000
0.570175 0.862247 0.847753 0.984433 0.045651 -0.169730 0.000000
0.175239 0.003444 0.074009 -0.306674 0.855298 0.417632 0.000000
0.440391 0.273784 0.142203 -0.763553 0.235780 -0.601161 0.000000
0.421053 0.007318 0.291630 -0.044104 -0.738383 0.672938 0.000000
0.555423 0.470082 0.160529 -0.251317 0.967630 0.023068 0.000000
0.928429 0.159277 0.908546 -0.648732 -0.275751 0.709301 0.000000
0.288278 0.925097 0.063612 0.681659 -0.006942 0.731638 0.000000
0.121013 0.028842 0.744846 0.941910 -0.179607 0.283807 0.000000
0.007775 0.458028 0.573216 0.924106 0.116715 0.363875 0.000000
0.056619 0.007318 0.103789 -0.171540 0.982456 -0.073174 0.000000
0.965909 0.242789 0.657445 0.573984 0.513387 -0.637947 0.000000
0.983254 0.877314 0.598062 0.109709 -0.961571 0.251686 0.000000
0.059809 0.571244 0.184317 0.052844 -0.944748 0.323509 0.000000
0.726077 0.250108 0.402115 0.926156 0.154591 0.344001 0.000000
0.126794 0.458028 0.842643 -0.692025 -0.551953 -0.465241 0.000000
0.742823 0.038313 0.352775 0.010192 -0.986373 0.164207 0.000000
0.012161 0.009040 0.882996 -0.863559 0.394200 0.314440 0.000000
0.343700 0.007318 0.044229 -0.585689 0.754853 -0.295238 0.000000
0.656499 0.062419 0.502203 0.767167 0.301444 0.566204 0.000000
0.146531 0.007318 0.851982 -0.003086 -0.998724 0.050399 0.000000
0.382775 0.007318 0.338150 -0.210236 0.975836 0.059547 0.000000
0.450159 0.077056 0.986960 0.001218 0.958193 0.286119 0.000000
0.050638 0.232889 0.200705 -0.707872 0.695950 -0.120711 0.000000
0.151116 0.813603 0.568634 0.169374 -0.984704 0.040883 0.000000
0.944577 0.068446 0.249339 0.557404 0.829912 -0.023397 0.000000
0.000399 0.520017 0.759648 0.557179 0.771110 0.308125 0.000000
0.568182 0.021524 0.906784 -0.900215 0.365666 0.236435 0.000000
0.311005 0.393026 0.088458 0.839883 -0.028961 0.541994 0.000000
0.032695 0.673267 0.707313 -0.586511 0.029256 -0.809413 0.000000
0.135766 0.031855 0.160176 0.626787 -0.535556 -0.565966 0.000000
0.113038 0.009040 0.897269 0.687277 -0.496645 -0.530089 0.000000
0.285885 0.245803 0.508546 0.589819 0.420350 0.689507 0.000000
0.000000 0.024107 0.109956 0.998887 -0.034373 0.032289 0.000000
0.118022 0.173913 0.263436 -0.540258 0.647973 0.536892 0.000000
0.113238 0.023676 0.120881 0.452509 0.093864 0.886806 0.000000
0.880383 0.388291 0.917181 0.989717 0.023699 -0.141066 0.000000
0.261164 0.007318 0.295507 0.331403 0.738787 0.586827 0.000000
0.013557 0.179509 0.983965 -0.495572 0.782907 0.376118 0.000000
0.103070 0.197589 0.945022 0.022297 0.911572 0.410535 0.000000
0.041467 0.007318 0.346608 -0.025021 0.995401 0.092469 0.000000
0.503987 0.256565 0.207048 -0.442368 0.589268 -0.676072 0.000000
0.235447 0.007318 0.421674 0.156521 -0.979799 -0.124478 0.000000
0.111842 0.007318 0.523524 0.418652 0.883164 -0.211545 0.000000
0.282097 0.024968 0.402115 0.041613 0.054417 0.997651 0.000000
0.677033 0.129143 0.038414 0.399513 -0.434812 0.807049 0.000000
0.098285 0.003444 0.372863 0.439661 -0.891964 -0.105350 0.000000
0.003589 0.089539 0.162996 0.665018 -0.671522 0.326818 0.000000
0.184011 0.007318 0.566872 0.771668 0.367230 0.519299 0.000000
0.555024 0.213517 0.691806 0.152074 0.905338 0.396530 0.000000
0.018939 0.541541 0.148899 -0.604101 0.560105 -0.566873 0.000000
0.017145 0.167025 0.997181 -0.260814 0.171624 0.950011 0.000000
0.147727 0.541541 0.983965 0.508561 0.276970 -0.815263 0.000000
0.251994 0.473095 0.872247 0.728202 -0.169456 -0.664083 0.000000
0.003190 0.068876 0.416916 0.832468 -0.550753 0.060569 0.000000
0.578549 0.027981 0.352775 -0.740748 0.540368 -0.399117 0.000000
0.067982 0.945760 0.922996 -0.166150 0.666125 0.727098 0.000000
0.096890 0.931985 0.946079 -0.452018 0.863489 0.223756 0.000000
0.004585 0.003444 0.968282 -0.371319 -0.920706 0.120092 0.000000
0.008971 0.965131 0.899736 0.264361 0.599958 0.755092 0.000000
0.125997 0.753336 0.751894 -0.058287 0.794699 0.604199 0.000000
0.282097 0.450280 0.930749 -0.641361 0.764755 0.061697 0.000000
0.536085 0.885923 0.134449 0.734321 0.038202 0.677726 0.000000
0.056021 0.077916 0.311013 0.432775 0.019852 0.901283 0.000000
0.158892 0.590185 0.403700 0.418204 0.503485 -0.756048 0.000000
0.893142 0.823504 0.176035 0.840189 0.451931 -0.299735 0.000000
0.893142 0.849763 0.890749 0.632623 -0.073494 -0.770965 0.000000
0.430821 0.048214 0.847753 0.573444 0.334375 -0.747901 0.000000
0.045056 0.003444 0.485286 -0.458882 0.786423 -0.413480 0.000000
0.343700 0.758071 0.931806 -0.191511 -0.981051 -0.029373 0.000000
0.418860 0.020663 0.445991 -0.559732 0.663946 -0.495859 0.000000
0.635367 0.173913 0.744846 0.111778 0.964888 0.237689 0.000000
0.024721 0.186827 0.847753 0.196045 0.027000 0.980223 0.000000
0.608453 0.007318 0.567930 -0.039008 0.998393 0.041116 0.000000
0.549242 0.872148 0.414802 -0.579095 0.800558 -0.154126 0.000000
0.054825 0.026259 0.464493 -0.204277 0.512961 0.833752 0.000000
0.001595 0.538097 0.744846 0.904712 -0.122031 0.408172 0.000000
0.252592 0.024537 0.911189 0.169405 0.864700 -0.472860 0.000000
0.003190 0.453724 0.294802 -0.390095 0.241770 0.888467 0.000000
0.072767 0.024537 0.695154 -0.270072 0.859044 -0.434862 0.000000
0.020734 0.719759 0.942026 0.651675 0.409577 -0.638409 0.000000
0.156300 0.408093 0.370749 0.354885 0.354885 0.864936 0.000000
0.850080 0.309083 0.063612 0.834376 0.046121 -0.549263 0.000000
0.512161 0.074042 0.459912 -0.519293 0.718383 -0.462884 0.000000
0.151116 0.033577 0.552952 0.197839 -0.411797 0.889541 0.000000
0.079346 0.024107 0.992952 0.158322 -0.773515 0.613685 0.000000
0.098485 0.853207 0.707313 -0.375404 0.881974 0.284945 0.000000
0.511962 0.071459 0.038238 0.912587 -0.235739 -0.334085 0.000000
0.280303 0.038743 0.402996 0.448216 -0.053132 -0.892345 0.000000
0.279306 0.052949 0.623965 -0.288852 -0.754845 0.588875 0.000000
0.572967 0.140336 0.223965 0.396181 0.301342 0.867314 0.000000
0.008772 0.541972 0.321057 -0.256187 0.768561 0.586244 0.000000
0.279705 0.027981 0.369868 0.871318 -0.487441 0.056615 0.000000
0.847488 0.331898 0.882467 -0.090875 -0.820759 0.564001 0.000000
0.133373 0.514421 0.930749 0.503913 0.861259 -0.065606 0.000000
0.019338 0.266466 0.770749 0.061629 0.962171 0.265383 0.000000
0.010367 0.007318 0.403524 -0.073787 -0.649613 0.756676 0.000000
0.026914 0.009471 0.194890 0.280345 -0.935878 0.213397 0.000000
0.727273 0.778734 0.983965 0.371001 -0.889509 0.266704 0.000000
0.479067 0.118381 0.540617 0.840217 0.489491 -0.233309 0.000000
0.249601 0.854498 0.710308 -0.634102 0.142411 0.760023 0.000000
0.088317 0.297891 0.327225 0.593373 -0.799385 0.094301 0.000000
0.740431 0.650882 0.844229 0.577324 -0.584096 0.570552 0.000000
0.639753 0.513130 0.185551 0.402153 -0.490073 0.773371 0.000000
0.010367 0.151959 0.792599 -0.344629 0.329447 0.879031 0.000000
0.003589 0.954369 0.552247 0.841347 -0.332480 0.426137 0.000000
0.312799 0.922944 0.038414 0.065552 0.997849 0.001041 0.000000
0.067384 0.454154 0.552247 0.863560 -0.411146 0.291929 0.000000
0.017145 0.513130 0.508370 -0.287719 0.214736 0.933331 0.000000
0.069378 0.027981 0.153128 0.314572 0.943716 0.102203 0.000000
0.157695 0.974602 0.896035 0.497798 0.810700 -0.308161 0.000000
0.945175 0.401636 0.552423 0.218816 -0.530974 0.818649 0.000000
0.733652 0.114938 0.576211 0.052960 -0.240166 0.969286 0.000000
0.010367 0.100301 0.857445 0.937401 0.151900 0.313379 0.000000
0.072169 0.325872 0.993128 0.152930 -0.326526 0.932734 0.000000
0.554825 0.031855 0.852511 0.190339 0.796380 0.574064 0.000000
0.669856 0.240207 0.068194 -0.378392 0.305449 0.873797 0.000000
0.092105 0.450280 0.598062 -0.739905 0.608863 -0.286054 0.000000
0.098285 0.900560 0.148899 -0.679241 -0.616440 0.398289 0.000000
0.618421 0.037452 0.943260 -0.665326 0.484330 -0.568125 0.000000
0.148923 0.169178 0.732511 -0.142004 -0.787748 0.599406 0.000000
0.062799 0.949204 0.965991 0.578477 0.783192 -0.227979 0.000000
0.411882 0.039604 0.459912 0.039209 -0.302292 0.952409 0.000000
0.108054 0.089109 0.934273 0.822446 0.182598 0.538740 0.000000
0.025319 0.045200 0.954890 0.815884 -0.249255 -0.521732 0.000000
0.708134 0.759363 0.491806 0.166063 0.983239 0.075266 0.000000
0.210726 0.024107 0.735330 0.295500 0.411863 0.862003 0.000000
0.084530 0.167025 0.487930 0.214890 -0.899028 -0.381539 0.000000
0.976475 0.537236 0.152952 0.980653 -0.056140 0.187531 0.000000
0.567185 0.847180 0.184670 0.499646 0.755203 0.424290 0.000000
0.003589 0.089539 0.585022 -0.091874 -0.762696 0.640198 0.000000
0.079944 0.269910 0.375330 0.927696 -0.065032 -0.367628 0.000000
0.394338 0.028842 0.050749 -0.095767 -0.995333 0.011836 0.000000
0.418262 0.057684 0.884053 0.323339 0.558202 -0.764109 0.000000
0.166866 0.315540 0.744846 -0.061660 -0.009406 0.998053 0.000000
0.295853 0.190702 0.987489 0.589472 -0.017946 0.807590 0.000000
0.436005 0.024107 0.876123 0.558138 0.829738 0.004074 0.000000
0.695375 0.527766 0.169692 0.663701 0.613798 -0.427496 0.000000
0.328549 0.561343 0.234537 0.049315 -0.977879 0.203274 0.000000
0.084928 0.738269 0.459912 -0.120498 0.242292 0.962691 0.000000
0.627990 0.072320 0.300617 0.494569 0.554923 0.668926 0.000000
0.415869 0.339647 0.346432 0.930306 0.349034 0.112723 0.000000
0.084530 0.742144 0.369163 0.369560 0.116776 0.921840 0.000000
0.037281 0.007318 0.060441 0.448624 0.723428 -0.524775 0.000000
0.154107 0.321997 0.098855 0.968879 -0.171130 0.178850 0.000000
0.171252 0.131296 0.124758 0.285113 0.952567 0.106425 0.000000
0.295455 0.007318 0.728634 0.000978 -0.999999 0.000978 0.000000
0.265550 0.159277 0.906784 -0.378081 -0.876116 0.299125 0.000000
0.220694 0.125269 0.142555 0.471045 0.428667 0.770948 0.000000
0.637759 0.153250 0.944670 0.183403 0.848423 0.496529 0.000000
0.001396 0.522170 0.554009 0.864145 0.134615 -0.484905 0.000000
0.082337 0.197589 0.330573 -0.233003 -0.745922 -0.623947 0.000000
0.120016 0.945329 0.390661 -0.134553 0.990801 -0.014456 0.000000
0.003389 0.353422 0.481938 0.973319 0.153149 0.170869 0.000000
0.077951 0.560482 0.021498 -0.396313 0.873103 -0.283948 0.000000
0.526316 0.683599 0.931806 0.665955 -0.498208 -0.555242 0.000000
0.366627 0.859234 0.380088 0.895616 -0.370345 -0.246405 0.000000
0.450159 0.826948 0.443877 0.522460 0.423572 -0.740015 0.000000
0.244219 0.373655 0.543260 0.631916 -0.567882 0.527439 0.000000
0.029107 0.164873 0.983965 0.000978 0.000978 0.999999 0.000000
0.211722 0.566509 0.024846 -0.689507 0.420350 0.589819 0.000000
0.170853 0.791218 0.817269 0.029080 0.319885 0.947010 0.000000
0.180821 0.979337 0.443877 -0.657626 0.604079 -0.450131 0.000000
0.829545 0.090400 0.990661 -0.579360 -0.151203 0.800924 0.000000
0.096491 0.415842 0.965991 -0.127313 0.983341 0.129738 0.000000
0.255981 0.219113 0.459207 -0.761965 0.327017 -0.558989 0.000000
0.654107 0.866552 0.721938 0.357709 0.903763 0.235066 0.000000
0.001794 0.893241 0.540617 0.450811 -0.025417 0.892258 0.000000
0.818581 0.562204 0.943260 -0.174617 0.915673 0.362010 0.000000
0.107057 0.764529 0.430132 -0.168990 -0.007939 0.985586 0.000000
0.016348 0.141627 0.468194 -0.156928 0.154417 0.975463 0.000000
0.900120 0.103745 0.226256 0.053146 0.983793 0.171249 0.000000
0.720295 0.007318 0.054449 0.156505 0.867357 0.472439 0.000000
0.722488 0.373224 0.145022 -0.544798 0.534678 0.645999 0.000000
0.938397 0.048214 0.708722 0.920461 -0.367907 0.131891 0.000000
0.088317 0.007318 0.562819 0.000978 0.999999 0.000978 0.000000
0.558612 0.034008 0.700793 -0.088694 0.874274 0.477261 0.000000
0.039474 0.024537 0.362996 0.819413 0.320502 -0.475228 0.000000
0.045056 0.270771 0.148899 0.041927 0.007158 0.999095 0.000000
0.042464 0.939303 0.906784 0.415679 0.883133 -0.217455 0.000000
0.070375 0.197589 0.271894 0.903797 0.152293 0.399948 0.000000
0.123604 0.311235 0.428194 0.914710 0.082908 -0.395514 0.000000
0.184011 0.007318 0.709604 0.000978 -0.999999 0.000978 0.000000
0.199362 0.053810 0.550661 -0.057655 -0.163553 0.984848 0.000000
0.006380 0.033147 0.416916 0.875805 0.085479 0.475036 0.000000
0.923246 0.098579 0.744317 -0.539318 0.842093 0.004055 0.000000
0.047847 0.281533 0.435419 0.565420 -0.796517 -0.214151 0.000000
0.678030 0.062419 0.634890 -0.425588 0.707106 -0.564691 0.000000
0.524721 0.633233 0.308546 -0.693381 0.699504 0.172963 0.000000
0.054625 0.411537 0.468546 0.145160 -0.037719 0.988689 0.000000
0.087719 0.117520 0.192599 0.138097 0.966682 -0.215535 0.000000
0.318182 0.553164 0.896035 0.020021 0.062169 0.997865 0.000000
0.729067 0.137322 0.055154 -0.779023 0.546431 0.307467 0.000000
0.035088 0.817908 0.954537 -0.455529 0.887663 -0.067435 0.000000
0.539872 0.442101 0.175507 0.908042 -0.033140 0.417567 0.000000
0.116228 0.173052 0.115419 -0.589996 0.532518 0.606901 0.000000
0.300638 0.208351 0.540617 0.576449 -0.657119 0.485696 0.000000
0.146531 0.197589 0.943260 -0.425341 0.500885 0.753790 0.000000
0.038078 0.186827 0.602643 0.670291 0.549336 -0.498938 0.000000
0.360247 0.779165 0.967577 0.334208 0.836304 -0.434627 0.000000
0.092105 0.007318 0.567930 0.000978 0.999999 0.000978 0.000000
0.137759 0.756350 0.815507 0.996069 0.005327 0.088421 0.000000
0.012959 0.007318 0.107137 0.985472 0.152612 -0.074531 0.000000
0.009968 0.329746 0.899559 0.170711 0.793125 0.584646 0.000000
0.015351 0.007318 0.852687 0.205805 0.292607 0.933823 0.000000
0.128589 0.057684 0.815507 0.279835 0.143265 0.949298 0.000000
0.453549 0.007318 0.346960 -0.057011 -0.924105 0.377862 0.000000
0.178828 0.024107 0.061322 -0.046456 0.980338 0.191779 0.000000
0.736842 0.969006 0.047401 -0.235324 0.931430 -0.277597 0.000000
0.138557 0.389582 0.744846 0.457965 0.880263 -0.124121 0.000000
0.794059 0.900990 0.427665 0.694074 -0.483343 -0.533517 0.000000
0.001595 0.362893 0.943260 0.981822 -0.137821 0.130503 0.000000
0.669458 0.007318 0.558767 0.959953 -0.230441 0.159334 0.000000
0.411085 0.007318 0.915947 -0.331716 0.733011 0.593852 0.000000
0.119019 0.935859 0.889692 0.913773 -0.211535 0.346802 0.000000
0.361244 0.041756 0.392952 0.907021 -0.035961 0.419547 0.000000
0.303628 0.189841 0.815507 0.729841 0.494836 0.471666 0.000000
0.115829 0.208351 0.876652 0.712607 -0.012551 -0.701451 0.000000
0.450159 0.077056 0.278590 -0.389198 -0.094227 -0.916322 0.000000
0.454944 0.100301 0.931806 -0.348838 0.161110 0.923231 0.000000
0.061204 0.053379 0.818150 -0.264881 0.130464 0.955415 0.000000
0.707536 0.606543 0.448811 0.624340 0.680349 -0.383829 0.000000
0.286284 0.007318 0.321233 0.978083 0.102372 -0.181309 0.000000
0.213716 0.053379 0.430132 -0.037213 -0.214873 0.975933 0.000000
0.568182 0.062419 0.463436 0.862089 0.144411 -0.485745 0.000000
0.654506 0.310805 0.991366 -0.187198 0.298130 0.935989 0.000000
0.085726 0.073612 0.031718 -0.202429 -0.475334 -0.856201 0.000000
0.430024 0.007318 0.803877 -0.278881 0.827296 0.487653 0.000000
0.050638 0.898838 0.901322 -0.610068 -0.138720 0.780111 0.000000
0.065391 0.104606 0.302731 -0.647562 0.513004 -0.563463 0.000000
0.356659 0.339647 0.160705 -0.098906 0.898511 0.427663 0.000000
0.039075 0.035730 0.027665 -0.424011 -0.122555 0.897326 0.000000
0.289474 0.719759 0.367048 0.929066 -0.347199 -0.127627 0.000000
0.525518 0.168317 0.946079 0.475421 0.022896 0.879461 0.000000
0.252592 0.107619 0.744846 0.142965 0.021388 0.989497 0.000000
0.154904 0.024537 0.819736 -0.071360 0.241623 0.967743 0.000000
0.134968 0.439518 0.961586 0.999766 0.021058 0.005014 0.000000
0.035088 0.247094 0.882467 -0.006714 -0.860773 0.508944 0.000000
0.192584 0.024537 0.459383 0.069758 -0.997009 -0.033269 0.000000
0.196172 0.923375 0.744846 -0.249578 -0.967876 0.030436 0.000000
0.406898 0.164873 0.072775 -0.589507 0.685820 -0.426770 0.000000
0.012360 0.488162 0.558590 0.528033 0.642750 0.555026 0.000000
0.122608 0.039604 0.552247 -0.640902 -0.680241 -0.355692 0.000000
0.980861 0.078777 0.067841 0.763175 0.627164 -0.155658 0.000000
0.232855 0.402497 0.906784 -0.711372 0.657743 -0.247639 0.000000
0.362640 0.148084 0.990661 0.183242 -0.206972 0.961033 0.000000
0.177033 0.019372 0.466608 -0.055789 -0.759587 0.648009 0.000000
0.035486 0.305639 0.066079 0.749938 0.178702 -0.636913 0.000000
0.103070 0.695222 0.847753 0.387156 -0.043605 0.920982 0.000000
0.215311 0.215669 0.158590 0.885723 0.099661 -0.453389 0.000000
0.224880 0.009040 0.980264 -0.113049 -0.039175 0.992817 0.000000
0.062998 0.657770 0.992423 0.921608 0.032774 0.386735 0.000000
0.303030 0.159277 0.732335 0.649768 -0.760132 -0.001380 0.000000
0.160686 0.183814 0.772687 -0.710544 -0.500875 -0.494219 0.000000
0.276116 0.321997 0.995419 0.742220 0.667567 -0.058861 0.000000
0.962919 0.779165 0.326167 0.736030 0.250597 -0.628857 0.000000
0.264952 0.024107 0.650220 -0.671885 0.061865 0.738067 0.000000
0.126196 0.612139 0.445110 0.927080 -0.254912 0.274849 0.000000
0.083333 0.491606 0.652511 -0.278766 -0.331865 0.901197 0.000000
0.112839 0.393026 0.943260 -0.184508 0.068738 0.980424 0.000000
0.282695 0.549290 0.140969 0.630856 0.018104 -0.775689 0.000000
0.125000 0.038313 0.197533 0.862261 0.466127 0.198067 0.000000
0.638357 0.939303 0.310485 0.327684 0.516302 0.791237 0.000000
0.276515 0.232028 0.434537 0.883081 0.148381 0.445142 0.000000
0.679625 0.508825 0.148899 -0.532050 0.271518 0.801998 0.000000
0.135566 0.129143 0.243700 -0.530657 0.842472 0.092972 0.000000
0.720494 0.024107 0.921938 -0.397034 0.710047 0.581547 0.000000
0.452352 0.527766 0.540617 -0.212751 0.178394 0.960683 0.000000
0.300638 0.007318 0.635419 0.931707 -0.308706 0.191370 0.000000
0.285088 0.371502 0.691806 0.978745 -0.084311 -0.186951 0.000000
0.648325 0.365476 0.608282 0.355916 -0.554189 0.752462 0.000000
0.765550 0.026259 0.931806 0.908563 0.400549 0.118630 0.000000
0.445574 0.139475 0.744317 0.042442 0.017598 0.998944 0.000000
0.463915 0.136461 0.142203 0.293523 -0.909774 0.293523 0.000000
0.116427 0.838140 0.668018 0.645748 -0.064719 -0.760803 0.000000
0.103070 0.481705 0.459912 0.858338 0.172850 0.483092 0.000000
0.303628 0.759363 0.200705 -0.625652 0.564942 -0.537960 0.000000
0.605064 0.040895 0.883348 0.802647 0.529339 -0.274879 0.000000
0.336124 0.024107 0.370749 0.847235 0.288585 -0.445995 0.000000
0.238636 0.791649 0.896035 0.837144 0.234156 -0.494328 0.000000
0.003190 0.241068 0.900617 0.745246 -0.542146 -0.388183 0.000000
0.453748 0.941455 0.744846 0.905798 -0.369566 0.207247 0.000000
0.176236 0.023676 0.952599 0.578802 0.538303 0.612551 0.000000
0.525518 0.610418 0.262379 0.960310 -0.134574 0.244324 0.000000
0.004585 0.003444 0.250573 0.182381 0.731056 -0.657491 0.000000
0.472687 0.449849 0.134449 -0.568523 0.793466 -0.217240 0.000000
0.939992 0.213947 0.867313 0.211189 0.915151 0.343361 0.000000
0.312002 0.105467 0.160529 0.717142 -0.623672 -0.311030 0.000000
0.201754 0.007318 0.067841 0.164800 0.609307 -0.775619 0.000000
0.194777 0.633663 0.300617 -0.163868 -0.117049 0.979514 0.000000
0.085526 0.007318 0.215154 0.453913 0.857729 0.241379 0.000000
0.568381 0.476108 0.595947 0.969273 0.223678 0.102361 0.000000
0.277711 0.048214 0.172159 0.943918 -0.324998 -0.058267 0.000000
0.156300 0.021524 0.296916 0.912300 0.115253 0.392970 0.000000
0.729864 0.007318 0.082467 0.301642 0.940412 0.156963 0.000000
0.197967 0.579423 0.906784 -0.528322 0.562081 -0.636350 0.000000
0.003389 0.077056 0.398238 0.709095 -0.697301 -0.104669 0.000000
0.041467 0.003444 0.345551 -0.025021 0.995401 0.092469 0.000000
0.067783 0.007318 0.990661 0.000978 -0.999999 0.000978 0.000000
0.463915 0.024107 0.110308 0.498363 0.836701 -0.227083 0.000000
0.791467 0.498924 0.761938 0.025592 0.470085 0.882250 0.000000
0.001794 0.140336 0.943436 0.984089 0.145390 -0.102134 0.000000
0.355662 0.158846 0.899207 0.379040 0.572662 0.726903 0.000000
0.400319 0.543263 0.906784 -0.006931 0.694504 0.719456 0.000000
0.145136 0.210504 0.986432 -0.410302 -0.555309 0.723384 0.000000
0.253190 0.112355 0.251630 -0.417120 0.797199 0.436446 0.000000
0.678429 0.086096 0.729163 0.111721 -0.837183 0.535391 0.000000
0.111842 0.667671 0.931806 -0.961777 0.273218 -0.018378 0.000000
0.274522 0.571244 0.459912 -0.679627 0.620097 -0.391902 0.000000
0.052432 0.139905 0.153128 -0.136205 0.451627 0.881749 0.000000
0.088317 0.538097 0.792599 -0.071181 0.919979 0.385451 0.000000
0.537081 0.061989 0.997181 0.154464 -0.179995 0.971464 0.000000
0.054625 0.381403 0.443877 0.263897 0.964378 -0.018242 0.000000
0.674043 0.511838 0.023612 0.458537 0.387745 0.799624 0.000000
0.805223 0.007318 0.679119 0.612990 -0.049549 0.788535 0.000000
0.182217 0.950495 0.732511 0.226564 0.210284 0.951025 0.000000
0.031100 0.615583 0.430132 -0.552085 0.609489 0.568969 0.000000
0.120016 0.319415 0.218326 -0.593678 -0.167680 -0.787039 0.000000
0.166268 0.620319 0.675771 0.810126 0.585783 0.023542 0.000000
0.290271 0.123117 0.758767 -0.785399 -0.375766 -0.491882 0.000000
0.282695 0.007318 0.424670 0.777160 -0.276992 0.565064 0.000000
0.325558 0.024107 0.711718 0.098109 -0.995105 -0.011859 0.000000
0.281898 0.071459 0.899207 0.700141 -0.553793 0.450684 0.000000
0.101675 0.007318 0.368634 -0.115666 0.976318 0.182826 0.000000
0.065191 0.024107 0.439119 -0.273675 -0.953234 0.128244 0.000000
0.341707 0.007318 0.853392 0.331884 0.940557 0.072149 0.000000
0.586124 0.269910 0.849515 0.540193 0.421252 0.728518 0.000000
0.695774 0.235471 0.930044 -0.318664 0.697178 -0.642180 0.000000
0.916467 0.684029 0.968811 -0.641647 0.236892 -0.729501 0.000000
0.681619 0.388291 0.744141 0.493524 -0.460512 0.737810 0.000000
0.446172 0.011192 0.478062 0.268223 0.907267 -0.323919 0.000000
0.182217 0.213947 0.459383 0.845609 0.526188 -0.089837 0.000000
0.133174 0.650452 0.468546 -0.460240 0.238474 0.855166 0.000000
0.234649 0.129143 0.744846 -0.208918 0.219701 0.952935 0.000000
0.184011 0.024107 0.110661 -0.593893 0.641001 0.486219 0.000000
0.417065 0.124839 0.441762 0.144547 0.012326 0.989421 0.000000
0.597289 0.755489 0.047401 0.829974 0.127351 -0.543070 0.000000
0.124801 0.863108 0.876652 0.791739 0.507033 0.340688 0.000000
0.163278 0.026259 0.543789 0.617497 -0.785002 0.049684 0.000000
0.113437 0.281533 0.356476 -0.632427 0.223302 0.741736 0.000000
0.628987 0.024107 0.736564 -0.016927 0.915337 0.402332 0.000000
0.339314 0.703831 0.650220 -0.311371 -0.041940 0.949363 0.000000
0.364833 0.336203 0.264141 -0.466327 0.115512 -0.877038 0.000000
0.098285 0.072751 0.473656 -0.283546 -0.906464 0.312929 0.000000
0.929226 0.761515 0.584317 0.215337 0.042105 0.975632 0.000000
0.008772 0.439518 0.194890 0.924737 -0.208172 -0.318631 0.000000
0.228270 0.042187 0.389251 0.738612 0.537920 0.406319 0.000000
0.342903 0.303917 0.627841 0.905849 0.151684 -0.395512 0.000000
0.129187 0.198020 0.901322 0.315093 0.615642 0.722289 0.000000
0.135566 0.591046 0.191366 -0.689163 0.723266 -0.044050 0.000000
0.082337 0.213947 0.988546 0.612805 0.229217 -0.756260 0.000000
0.177033 0.229875 0.481057 0.953848 0.299710 0.018654 0.000000
0.193581 0.077056 0.528106 0.915565 0.366509 -0.165566 0.000000
0.244418 0.840723 0.332335 -0.164435 0.985444 0.043150 0.000000
0.596890 0.487301 0.443877 0.957933 0.241796 -0.154591 0.000000
0.089912 0.473956 0.141498 0.875978 0.465946 0.124730 0.000000
0.489234 0.487731 0.135154 0.219592 -0.733532 0.643203 0.000000
0.147329 0.068876 0.883348 0.951116 -0.120378 -0.284409 0.000000
0.445574 0.930263 0.761938 -0.682278 0.619501 0.388221 0.000000
0.043262 0.335342 0.528282 -0.483237 -0.405138 0.776109 0.000000
0.101276 0.373224 0.153128 0.709201 -0.675060 0.203294 0.000000
0.586124 0.269910 0.286520 -0.333572 0.064098 0.940543 0.000000
